# .PCD v0.7 - Point Cloud Data file format
VERSION 0.7
FIELDS x y z rgb
SIZE 4 4 4 4
TYPE F F F U
COUNT 1 1 1 1
WIDTH 1202
HEIGHT 1
VIEWPOINT 0 0 0 1 0 0 0
POINTS 1202
DATA ascii
0.14416024 0.31715253 1.102344 9044225
0.14614809 0.31715128 1.1023397 9044225
0.14813592 0.31715006 1.1023355 9044225
0.15012375 0.31714883 1.1023313 9044225
0.15211155 0.31714761 1.102327 9044225
0.15409935 0.31714639 1.1023227 9044225
0.15608713 0.31714517 1.1023185 9044225
0.15807489 0.31714395 1.1023142 9044225
0.16006263 0.3171427 1.1023099 9044225
0.16205037 0.3171415 1.1023058 9044225
0.16403808 0.31714028 1.1023015 9044225
0.16602577 0.31713903 1.1022972 9044225
0.16801347 0.31713784 1.102293 9044225
0.17000112 0.31713662 1.1022887 9044225
0.17198877 0.31713536 1.1022844 9044225
0.17397642 0.31713417 1.1022803 9044225
0.17596404 0.31713295 1.102276 9044225
0.17795165 0.3171317 1.1022717 9044225
0.17993926 0.31713051 1.1022675 9044225
0.18192682 0.31712925 1.1022632 9044225
0.18391438 0.31712803 1.1022589 9044225
0.18590194 0.31712684 1.1022547 9044225
0.18788946 0.31712559 1.1022505 9044225
0.18987699 0.3171244 1.1022463 9044225
0.19186448 0.31712317 1.102242 9044225
0.19385198 0.31712195 1.1022378 9044225
0.19583945 0.31712073 1.1022335 9044225
0.19782691 0.31711954 1.1022294 7671567
0.097967595 0.33814621 1.1679901 6946816
0.09807267 0.33138239 1.1446272 6946816
0.098173618 0.32488385 1.1221806 6946816
0.098270684 0.31863526 1.1005974 7471104
0.099958979 0.31769142 1.0973372 9044225
0.10193796 0.31769016 1.097333 9044225
0.10391695 0.31768897 1.0973288 9044225
0.10589592 0.31768775 1.0973246 9044225
0.10787486 0.31768653 1.0973203 9044225
0.1098538 0.31768531 1.0973161 9044225
0.11183272 0.31768408 1.097312 9044225
0.11381161 0.31768286 1.0973077 9044225
0.11579051 0.31768164 1.0973035 9044225
0.11776938 0.31768045 1.0972993 9044225
0.11974823 0.3176792 1.097295 9044225
0.12172708 0.31767797 1.0972909 9044225
0.12370591 0.31767678 1.0972867 9044225
0.12568471 0.31767553 1.0972824 9044225
0.12766352 0.31767434 1.0972782 9044225
0.12964231 0.31767312 1.0972741 9044225
0.13162106 0.31767187 1.0972698 9044225
0.13359982 0.31767067 1.0972656 9044225
0.13557856 0.31766945 1.0972614 9044225
0.13755727 0.31766823 1.0972571 9044225
0.13953598 0.31766701 1.097253 9044225
0.14151467 0.31766582 1.0972488 9044225
0.14349334 0.31766456 1.0972445 9044225
0.14547201 0.31766334 1.0972403 9044225
0.14745066 0.31766215 1.0972362 9044225
0.14942928 0.3176609 1.0972319 9044225
0.1514079 0.31765971 1.0972277 9044225
0.1533865 0.31765848 1.0972235 9044225
0.15536506 0.31765723 1.0972192 9044225
0.15734364 0.31765604 1.0972151 9044225
0.15932219 0.31765479 1.0972108 9044225
0.16130073 0.3176536 1.0972066 9044225
0.16327927 0.31765237 1.0972024 9044225
0.16525775 0.31765115 1.0971981 9044225
0.16723625 0.31764993 1.097194 9044225
0.16921474 0.31764871 1.0971898 9044225
0.1711932 0.31764749 1.0971855 9044225
0.17317164 0.31764627 1.0971813 9044225
0.17515008 0.31764507 1.0971771 9044225
0.17712848 0.31764382 1.0971729 9044225
0.17910689 0.3176426 1.0971687 9044225
0.18108529 0.31764141 1.0971645 9044225
0.18306364 0.31764016 1.0971602 9044225
0.18504201 0.31763896 1.097156 9044225
0.18702036 0.31763774 1.0971519 9044225
0.18899867 0.31763652 1.0971476 9044225
0.19097699 0.3176353 1.0971434 9044225
0.19295529 0.31763408 1.0971392 9044225
0.19493358 0.31763288 1.0971351 9044225
0.19691184 0.31763166 1.0971309 9044225
0.097970068 0.34026164 1.1680197 6946816
0.098075099 0.33345535 1.1446556 6946816
0.09817601 0.32691598 1.1222079 6946816
0.098273039 0.3206282 1.1006237 7471104
0.099498652 0.31819868 1.0922838 9044225
0.10146854 0.31819746 1.0922797 9044225
0.10343841 0.31819624 1.0922755 9044225
0.10540826 0.31819502 1.0922713 9044225
0.1073781 0.31819379 1.0922672 9044225
0.10934792 0.3181926 1.092263 9044225
0.11131772 0.31819138 1.0922588 9044225
0.11328752 0.31819016 1.0922546 9044225
0.11525729 0.31818894 1.0922505 9044225
0.11722706 0.31818774 1.0922463 9044225
0.1191968 0.31818652 1.0922421 9044225
0.12116653 0.3181853 1.0922379 9044225
0.12313625 0.31818408 1.0922338 9044225
0.12510596 0.31818286 1.0922296 9044225
0.12707564 0.31818166 1.0922254 9044225
0.12904532 0.31818044 1.0922213 9044225
0.13101497 0.31817922 1.0922171 9044225
0.13298461 0.318178 1.0922129 9044225
0.13495424 0.31817678 1.0922087 9044225
0.13692385 0.31817558 1.0922046 9044225
0.13889346 0.31817436 1.0922004 9044225
0.14086303 0.31817314 1.0921962 9044225
0.14283259 0.31817192 1.0921921 9044225
0.14480215 0.31817073 1.0921879 9044225
0.14677168 0.3181695 1.0921837 9044225
0.14874122 0.31816828 1.0921795 9044225
0.15071072 0.31816706 1.0921754 9044225
0.1526802 0.31816584 1.0921712 9044225
0.15464969 0.31816465 1.092167 9044225
0.15661915 0.31816342 1.0921628 9044225
0.15858859 0.3181622 1.0921587 9044225
0.160558 0.31816095 1.0921544 9044225
0.16252744 0.31815976 1.0921503 9044225
0.16449684 0.31815857 1.0921462 9044225
0.16646621 0.31815732 1.0921419 9044225
0.1684356 0.31815612 1.0921378 9044225
0.17040494 0.31815487 1.0921335 9044225
0.17237428 0.31815365 1.0921293 9044225
0.1743436 0.31815246 1.0921252 9044225
0.17631291 0.31815124 1.092121 9044225
0.1782822 0.31815001 1.0921168 9044225
0.18025149 0.31814879 1.0921127 9044225
0.18222076 0.31814757 1.0921085 9044225
0.18419001 0.31814638 1.0921043 9044225
0.18615924 0.31814516 1.0921001 9044225
0.18812846 0.31814393 1.092096 9044225
0.19009766 0.31814271 1.0920918 9044225
0.19206685 0.31814152 1.0920876 9044225
0.19403602 0.3181403 1.0920835 9044225
0.1960052 0.31813908 1.0920793 9044225
0.19797435 0.31813788 1.0920752 7671567
0.097972549 0.34237719 1.1680492 6946816
0.098077528 0.3355284 1.144684 6946816
0.098178394 0.32894823 1.1222352 6946816
0.098275378 0.3226212 1.10065 6946816
0.09904255 0.3187013 1.0872768 8257793
0.1010034 0.31870008 1.0872726 8782081
0.10296425 0.31869888 1.0872686 8782081
0.10492507 0.31869766 1.0872644 8782081
0.10688588 0.31869644 1.0872602 8782081
0.10884668 0.31869525 1.0872562 8782081
0.11080746 0.31869403 1.087252 8782081
0.11276822 0.3186928 1.0872478 8782081
0.11472896 0.31869158 1.0872437 8782081
0.11668971 0.31869039 1.0872396 8782081
0.11865043 0.31868917 1.0872355 8782081
0.12061112 0.31868795 1.0872313 8782081
0.12257183 0.31868675 1.0872272 8782081
0.1245325 0.31868553 1.0872231 8782081
0.12649316 0.31868431 1.0872189 8782081
0.12845381 0.31868312 1.0872148 8782081
0.13041444 0.3186819 1.0872107 8782081
0.13237505 0.31868067 1.0872065 8782081
0.13433564 0.31867945 1.0872023 8782081
0.13629624 0.31867826 1.0871983 8782081
0.1382568 0.31867704 1.0871941 8782081
0.14021736 0.31867582 1.0871899 8782081
0.14217791 0.31867462 1.0871859 8782081
0.14413843 0.3186734 1.0871817 8782081
0.14609894 0.31867218 1.0871775 8782081
0.14805944 0.31867099 1.0871735 8782081
0.15001991 0.31866977 1.0871693 8782081
0.15198039 0.31866854 1.0871651 8782081
0.15394084 0.31866735 1.0871611 8782081
0.15590128 0.31866613 1.0871569 8782081
0.15786169 0.31866491 1.0871527 8782081
0.15982209 0.31866369 1.0871485 8782081
0.1617825 0.31866249 1.0871445 8782081
0.16374287 0.31866127 1.0871403 8782081
0.16570322 0.31866005 1.0871361 8782081
0.16766359 0.31865886 1.0871321 8782081
0.16962391 0.31865764 1.0871279 8782081
0.17158422 0.31865641 1.0871238 8782081
0.17354454 0.31865522 1.0871197 8782081
0.17550482 0.318654 1.0871155 8782081
0.1774651 0.31865278 1.0871114 8782081
0.17942534 0.31865156 1.0871072 8782081
0.18138559 0.31865036 1.0871031 8782081
0.18334582 0.31864914 1.087099 8782081
0.18530604 0.31864795 1.0870949 8782081
0.18726623 0.31864673 1.0870907 8782081
0.18922642 0.31864551 1.0870866 8782081
0.19118658 0.31864429 1.0870824 8782081
0.19314675 0.31864309 1.0870783 8782081
0.19510688 0.31864187 1.0870742 8782081
0.19706699 0.31864065 1.08707 8782081
0.097975031 0.34449285 1.1680788 6946816
0.098079972 0.3376016 1.1447124 6946816
0.098180786 0.3309806 1.1222625 6946816
0.098277725 0.32461429 1.1006762 6946816
0.098891839 0.32017457 1.0856223 7733505
0.10085104 0.32017756 1.0856324 7995649
0.10281026 0.32018051 1.0856425 7995649
0.10476953 0.32018352 1.0856526 7995649
0.10672883 0.3201865 1.0856627 7995649
0.10868817 0.32018948 1.0856729 7995649
0.11064755 0.32019246 1.085683 7995649
0.11260697 0.32019547 1.0856931 7995649
0.11456642 0.32019845 1.0857033 7995649
0.1165259 0.32020143 1.0857134 7995649
0.11848543 0.32020441 1.0857235 7995649
0.12044499 0.32020742 1.0857337 7995649
0.12240458 0.3202104 1.0857438 7995649
0.12436422 0.32021338 1.0857539 7995649
0.12632389 0.32021639 1.0857641 7995649
0.1282836 0.32021937 1.0857742 7995649
0.13024335 0.32022235 1.0857843 7995649
0.13220312 0.32022533 1.0857944 7995649
0.13416293 0.32022834 1.0858046 7995649
0.13612279 0.32023132 1.0858147 7995649
0.13808268 0.3202343 1.0858248 7995649
0.1400426 0.32023728 1.085835 7995649
0.14200257 0.32024029 1.0858451 7995649
0.14396258 0.32024327 1.0858552 7995649
0.1459226 0.32024625 1.0858654 7995649
0.14788269 0.32024926 1.0858755 7995649
0.14984278 0.32025224 1.0858856 7995649
0.15180293 0.32025522 1.0858958 7995649
0.15376312 0.3202582 1.0859059 7995649
0.15572333 0.32026121 1.085916 7995649
0.1576836 0.32026419 1.0859262 7995649
0.15964389 0.32026717 1.0859363 7995649
0.16160421 0.32027015 1.0859464 7995649
0.16356458 0.32027316 1.0859566 7995649
0.16552497 0.32027614 1.0859667 7995649
0.16748542 0.32027912 1.0859768 7995649
0.16944589 0.32028213 1.085987 7995649
0.1714064 0.32028511 1.0859971 7995649
0.17336695 0.32028809 1.0860072 7995649
0.17532754 0.32029107 1.0860174 7995649
0.17728816 0.32029408 1.0860275 7995649
0.17924881 0.32029706 1.0860376 7995649
0.1812095 0.32030004 1.0860478 7995649
0.18317024 0.32030302 1.0860579 7995649
0.185131 0.32030603 1.086068 7995649
0.18709181 0.32030901 1.0860782 7995649
0.18905266 0.32031199 1.0860883 7995649
0.19101353 0.320315 1.0860984 7995649
0.19297443 0.32031798 1.0861086 7995649
0.1949354 0.32032096 1.0861187 7995649
0.19689637 0.32032394 1.0861288 7995649
0.097977512 0.34660861 1.1681083 6946816
0.098082401 0.33967486 1.1447408 6946816
0.09818317 0.33301303 1.1222898 6946816
0.098280072 0.32660753 1.1007025 6946816
0.098910287 0.32219294 1.0858248 7733505
0.10086985 0.32219592 1.085835 7995649
0.10282945 0.32219893 1.0858451 7995649
0.10478909 0.32220194 1.0858552 7995649
0.10674875 0.32220495 1.0858654 7995649
0.10870846 0.32220796 1.0858755 7995649
0.1106682 0.32221097 1.0858856 7995649
0.11262798 0.32221398 1.0858958 7995649
0.1145878 0.32221699 1.0859059 7995649
0.11654765 0.32222 1.085916 7995649
0.11850754 0.32222298 1.0859262 7995649
0.12046747 0.32222599 1.0859363 7995649
0.12242743 0.322229 1.0859464 7995649
0.12438744 0.32223201 1.0859566 7995649
0.12634747 0.32223502 1.0859667 7995649
0.12830754 0.32223803 1.0859768 7995649
0.13026765 0.32224104 1.085987 7995649
0.13222779 0.32224405 1.0859971 7995649
0.13418798 0.32224706 1.0860072 7995649
0.1361482 0.32225004 1.0860174 7995649
0.13810845 0.32225305 1.0860275 7995649
0.14006874 0.32225606 1.0860376 7995649
0.14202908 0.32225907 1.0860478 7995649
0.14398944 0.32226208 1.0860579 7995649
0.14594984 0.32226509 1.086068 7995649
0.14791028 0.3222681 1.0860782 7995649
0.14987075 0.32227111 1.0860883 7995649
0.15183127 0.32227412 1.0860984 7995649
0.15379182 0.3222771 1.0861086 7995649
0.15575239 0.32228011 1.0861187 7995649
0.15771301 0.32228312 1.0861288 7995649
0.15967368 0.32228613 1.086139 7995649
0.16163437 0.32228914 1.0861491 7995649
0.1635951 0.32229215 1.0861592 7995649
0.16555586 0.32229516 1.0861694 7995649
0.16751668 0.32229817 1.0861795 7995649
0.16947754 0.32230121 1.0861897 7995649
0.17143841 0.32230422 1.0861999 7995649
0.17339931 0.3223072 1.08621 7995649
0.17536028 0.32231021 1.0862201 7995649
0.17732126 0.32231322 1.0862303 7995649
0.17928228 0.32231623 1.0862404 7995649
0.18124335 0.32231924 1.0862505 7995649
0.18320444 0.32232225 1.0862607 7995649
0.18516557 0.32232526 1.0862708 7995649
0.18712674 0.32232827 1.0862809 7995649
0.18908794 0.32233128 1.0862911 7995649
0.19104919 0.32233426 1.0863012 7995649
0.19301046 0.32233727 1.0863113 7995649
0.19497178 0.32234028 1.0863215 7995649
0.19693314 0.32234329 1.0863316 7995649
0.09798 0.34872451 1.168138 6946816
0.098084837 0.34174821 1.1447692 6946816
0.098185562 0.33504558 1.1223171 6946816
0.098282419 0.32860082 1.1007288 6946816
0.09892875 0.32421204 1.0860275 7733505
0.10088868 0.32421505 1.0860376 7995649
0.10284864 0.32421809 1.0860478 7995649
0.10480864 0.3242211 1.0860579 7995649
0.10676868 0.32422414 1.086068 7995649
0.10872875 0.32422715 1.0860782 7995649
0.11068886 0.32423019 1.0860883 7995649
0.112649 0.3242332 1.0860984 7995649
0.11460918 0.32423624 1.0861086 7995649
0.11656941 0.32423925 1.0861187 7995649
0.11852966 0.32424229 1.0861288 7995649
0.12048995 0.3242453 1.086139 7995649
0.12245028 0.32424834 1.0861491 7995649
0.12441064 0.32425135 1.0861592 7995649
0.12637104 0.32425439 1.0861694 7995649
0.12833148 0.3242574 1.0861795 7995649
0.13029195 0.32426044 1.0861896 7995649
0.13225248 0.32426351 1.0861999 7995649
0.13421303 0.32426652 1.08621 7995649
0.13617362 0.32426956 1.0862201 7995649
0.13813424 0.32427257 1.0862303 7995649
0.14009489 0.32427561 1.0862404 7995649
0.14205559 0.32427862 1.0862505 7995649
0.14401633 0.32428166 1.0862607 7995649
0.14597709 0.32428467 1.0862708 7995649
0.14793789 0.32428771 1.0862809 7995649
0.14989874 0.32429072 1.0862911 7995649
0.15185961 0.32429376 1.0863012 7995649
0.15382053 0.32429677 1.0863113 7995649
0.15578148 0.32429981 1.0863215 7995649
0.15774246 0.32430282 1.0863316 7995649
0.15970349 0.32430586 1.0863417 7995649
0.16166455 0.32430887 1.0863519 7995649
0.16362564 0.32431191 1.086362 7995649
0.1655868 0.32431495 1.0863723 7995649
0.16754796 0.32431799 1.0863824 7995649
0.16950917 0.324321 1.0863925 7995649
0.17147042 0.32432404 1.0864027 7995649
0.17343169 0.32432705 1.0864128 7995649
0.175393 0.32433009 1.0864229 7995649
0.17735437 0.3243331 1.0864331 7995649
0.17931575 0.32433614 1.0864432 7995649
0.18127717 0.32433915 1.0864533 7995649
0.18323864 0.32434219 1.0864635 7995649
0.18520014 0.3243452 1.0864736 7995649
0.18716167 0.32434824 1.0864837 7995649
0.18912326 0.32435131 1.086494 7995649
0.19108488 0.32435432 1.0865041 7995649
0.19304651 0.32435736 1.0865142 7995649
0.1950082 0.32436037 1.0865244 7995649
0.19696991 0.32436341 1.0865345 7995649
0.097982481 0.35084048 1.1681676 6946816
0.098087274 0.3438217 1.1447977 6946816
0.098187953 0.33707821 1.1223444 6946816
0.098284759 0.33059418 1.100755 6946816
0.09894722 0.32623193 1.0862303 7733505
0.10090751 0.32623497 1.0862404 7995649
0.10286784 0.32623801 1.0862505 7995649
0.10482821 0.32624105 1.0862607 7995649
0.10678861 0.32624412 1.0862708 7995649
0.10874905 0.32624716 1.0862809 7995649
0.11070953 0.3262502 1.0862911 7995649
0.11267003 0.32625324 1.0863012 7995649
0.11463058 0.32625628 1.0863113 7995649
0.11659117 0.32625932 1.0863215 7995649
0.11855179 0.32626235 1.0863316 7995649
0.12051245 0.32626539 1.0863417 7995649
0.12247314 0.32626843 1.0863519 7995649
0.12443388 0.3262715 1.086362 7995649
0.12639464 0.32627454 1.0863721 7995649
0.12835546 0.32627761 1.0863824 7995649
0.1303163 0.32628065 1.0863925 7995649
0.13227718 0.32628369 1.0864027 7995649
0.13423809 0.32628673 1.0864128 7995649
0.13619904 0.32628977 1.0864229 7995649
0.13816002 0.32629284 1.0864331 7995649
0.14012104 0.32629588 1.0864432 7995649
0.14208211 0.32629892 1.0864533 7995649
0.14404321 0.32630196 1.0864635 7995649
0.14600433 0.326305 1.0864736 7995649
0.14796551 0.32630804 1.0864837 7995649
0.14992672 0.32631108 1.0864938 7995649
0.15188797 0.32631418 1.0865041 7995649
0.15384926 0.32631722 1.0865142 7995649
0.15581056 0.32632026 1.0865244 7995649
0.15777193 0.3263233 1.0865345 7995649
0.15973331 0.32632634 1.0865446 7995649
0.16169474 0.32632938 1.0865548 7995649
0.1636562 0.32633242 1.0865649 7995649
0.1656177 0.32633546 1.086575 7995649
0.16757923 0.3263385 1.0865852 7995649
0.16954081 0.32634157 1.0865953 7995649
0.17150244 0.32634464 1.0866055 7995649
0.17346407 0.32634768 1.0866157 7995649
0.17542577 0.32635072 1.0866258 7995649
0.17738748 0.32635376 1.0866359 7995649
0.17934924 0.3263568 1.0866461 7995649
0.18131103 0.32635984 1.0866562 7995649
0.18327285 0.32636291 1.0866663 7995649
0.18523473 0.32636595 1.0866765 7995649
0.18719664 0.32636902 1.0866867 7995649
0.18915857 0.32637206 1.0866969 7995649
0.19112055 0.3263751 1.086707 7995649
0.19308257 0.32637814 1.0867171 7995649
0.19504462 0.32638118 1.0867273 7995649
0.1970067 0.32638425 1.0867374 7995649
0.097984962 0.35295656 1.1681972 6946816
0.09808971 0.34589529 1.1448261 6946816
0.098190337 0.33911097 1.1223717 6946816
0.09828715 0.33258784 1.1007818 6946816
0.098965704 0.32825258 1.0864332 7733505
0.10092636 0.32825565 1.0864433 7995649
0.10288706 0.32825869 1.0864534 7995649
0.10484777 0.32826173 1.0864635 7995649
0.10680854 0.3282648 1.0864736 7995649
0.10876935 0.32826784 1.0864837 7995649
0.11073019 0.32827091 1.0864938 7995649
0.11269107 0.32827398 1.086504 7995649
0.11465199 0.32827708 1.0865142 7995649
0.11661294 0.32828012 1.0865244 7995649
0.11857393 0.32828319 1.0865345 7995649
0.12053496 0.32828626 1.0865446 7995649
0.12249602 0.32828933 1.0865548 7995649
0.12445711 0.32829237 1.0865649 7995649
0.12641825 0.32829544 1.086575 7995649
0.12837942 0.32829851 1.0865852 7995649
0.13034062 0.32830158 1.0865953 7995649
0.13230188 0.32830465 1.0866055 7995649
0.13426316 0.32830772 1.0866157 7995649
0.13622448 0.32831079 1.0866258 7995649
0.13818583 0.32831386 1.0866359 7995649
0.14014722 0.3283169 1.0866461 7995649
0.14210865 0.32831997 1.0866562 7995649
0.1440701 0.32832304 1.0866663 7995649
0.1460316 0.32832611 1.0866765 7995649
0.14799315 0.32832915 1.0866866 7995649
0.14995474 0.32833225 1.0866969 7995649
0.15191634 0.32833531 1.086707 7995649
0.15387799 0.32833838 1.0867171 7995649
0.15583967 0.32834142 1.0867273 7995649
0.15780139 0.32834449 1.0867374 7995649
0.15976314 0.32834756 1.0867475 7995649
0.16172494 0.32835063 1.0867577 7995649
0.16368677 0.32835367 1.0867678 7995649
0.16564864 0.32835677 1.086778 7995649
0.16761054 0.32835984 1.0867882 7995649
0.16957249 0.32836291 1.0867983 7995649
0.17153446 0.32836595 1.0868084 7995649
0.17349647 0.32836902 1.0868186 7995649
0.17545852 0.32837209 1.0868287 7995649
0.1774206 0.32837516 1.0868388 7995649
0.17938274 0.32837826 1.0868491 7995649
0.1813449 0.3283813 1.0868592 7995649
0.1833071 0.32838437 1.0868694 7995649
0.18526933 0.32838744 1.0868795 7995649
0.1872316 0.32839048 1.0868896 7995649
0.1891939 0.32839355 1.0868998 7995649
0.19115625 0.32839665 1.08691 7995649
0.19311863 0.32839972 1.0869201 7995649
0.19508106 0.32840279 1.0869303 7995649
0.19704351 0.32840583 1.0869404 7995649
0.097987436 0.35507277 1.1682267 6946816
0.098092139 0.34796894 1.1448544 6946816
0.098192737 0.34114385 1.1223991 6946816
0.098289572 0.33458167 1.1008089 6946816
0.098984189 0.33027396 1.0866361 7733505
0.10094521 0.33027706 1.0866462 7995649
0.10290627 0.33028013 1.0866563 7995649
0.10486737 0.33028319 1.0866665 7995649
0.1068285 0.33028629 1.0866766 7995649
0.10878966 0.33028933 1.0866866 7995649
0.11075088 0.33029243 1.0866969 7995649
0.11271212 0.33029553 1.086707 7995649
0.11467341 0.3302986 1.0867171 7995649
0.11663472 0.33030167 1.0867273 7995649
0.11859607 0.33030477 1.0867374 7995649
0.12055746 0.33030784 1.0867475 7995649
0.12251889 0.33031091 1.0867577 7995649
0.12448035 0.33031401 1.0867678 7995649
0.12644187 0.33031711 1.086778 7995649
0.1284034 0.33032021 1.0867882 7995649
0.13036497 0.33032328 1.0867983 7995649
0.13232659 0.33032635 1.0868084 7995649
0.13428822 0.33032945 1.0868186 7995649
0.13624991 0.33033252 1.0868287 7995649
0.13821162 0.33033559 1.0868388 7995649
0.14017341 0.33033872 1.0868491 7995649
0.14213519 0.33034179 1.0868592 7995649
0.14409702 0.33034489 1.0868694 7995649
0.14605889 0.33034796 1.0868795 7995649
0.14802079 0.33035102 1.0868896 7995649
0.14998272 0.33035412 1.0868998 7995649
0.1519447 0.33035719 1.0869099 7995649
0.15390673 0.33036032 1.0869201 7995649
0.15586878 0.33036339 1.0869303 7995649
0.15783086 0.33036646 1.0869404 7995649
0.15979299 0.33036956 1.0869505 7995649
0.16175514 0.33037263 1.0869607 7995649
0.16371734 0.3303757 1.0869708 7995649
0.16567959 0.33037883 1.0869811 7995649
0.16764186 0.3303819 1.0869912 7995649
0.16960417 0.33038497 1.0870013 7995649
0.1715665 0.33038807 1.0870115 7995649
0.17352888 0.33039114 1.0870216 7995649
0.17549129 0.33039421 1.0870317 7995649
0.17745376 0.33039734 1.087042 7995649
0.17941625 0.33040041 1.0870521 7995649
0.18137878 0.33040351 1.0870622 7995649
0.18334134 0.33040658 1.0870724 7995649
0.18530393 0.33040965 1.0870825 7995649
0.18726659 0.33041278 1.0870928 7995649
0.18922925 0.33041584 1.0871029 7995649
0.19119197 0.33041894 1.087113 7995649
0.19315471 0.33042201 1.0871232 7995649
0.19511749 0.33042508 1.0871333 7995649
0.19708033 0.33042821 1.0871435 7995649
0.097989917 0.35718906 1.1682563 6946816
0.098094575 0.35004276 1.1448829 6946816
0.098195128 0.34317678 1.1224264 6946816
0.098292001 0.33657563 1.100836 6946816
0.099002682 0.33229613 1.0868391 7733505
0.10096407 0.3322992 1.0868492 7995649
0.10292549 0.33230227 1.0868592 7995649
0.10488695 0.33230537 1.0868694 7995649
0.10684845 0.33230847 1.0868795 7995649
0.10880999 0.33231157 1.0868896 7995649
0.11077156 0.33231467 1.0868998 7995649
0.11273316 0.33231777 1.0869099 7995649
0.11469483 0.3323209 1.0869201 7995649
0.1166565 0.332324 1.0869303 7995649
0.11861823 0.3323271 1.0869404 7995649
0.12057998 0.3323302 1.0869505 7995649
0.12254178 0.3323333 1.0869607 7995649
0.12450361 0.3323364 1.0869708 7995649
0.12646548 0.33233953 1.0869811 7995649
0.12842739 0.33234262 1.0869912 7995649
0.13038933 0.33234572 1.0870013 7995649
0.13235129 0.33234882 1.0870115 7995649
0.13431332 0.33235192 1.0870216 7995649
0.13627537 0.33235502 1.0870317 7995649
0.13823746 0.33235815 1.087042 7995649
0.14019959 0.33236125 1.0870521 7995649
0.14216174 0.33236435 1.0870622 7995649
0.14412394 0.33236745 1.0870724 7995649
0.14608617 0.33237055 1.0870825 7995649
0.14804846 0.33237368 1.0870928 7995649
0.15001076 0.33237678 1.0871029 7995649
0.1519731 0.33237988 1.087113 7995649
0.15393548 0.33238298 1.0871232 7995649
0.15589789 0.33238608 1.0871333 7995649
0.15786034 0.33238918 1.0871434 7995649
0.15982285 0.33239231 1.0871537 7995649
0.16178538 0.3323954 1.0871638 7995649
0.16374794 0.3323985 1.0871739 7995649
0.16571054 0.3324016 1.0871841 7995649
0.16767317 0.3324047 1.0871942 7995649
0.16963586 0.33240783 1.0872045 7995649
0.17159857 0.33241093 1.0872146 7995649
0.1735613 0.33241403 1.0872247 7995649
0.17552409 0.33241713 1.0872349 7995649
0.17748691 0.33242023 1.087245 7995649
0.17944978 0.33242336 1.0872552 7995649
0.18141267 0.33242646 1.0872654 7995649
0.1833756 0.33242956 1.0872755 7995649
0.18533856 0.33243266 1.0872856 7995649
0.18730158 0.33243579 1.0872959 7995649
0.18926461 0.33243889 1.087306 7995649
0.19122769 0.33244199 1.0873162 7995649
0.1931908 0.33244509 1.0873263 7995649
0.19515395 0.33244818 1.0873364 7995649
0.19711715 0.33245131 1.0873467 7995649
0.097992405 0.3593055 1.168286 6946816
0.098097011 0.35211664 1.1449113 6946816
0.098197512 0.34520981 1.1224537 6946816
0.098294415 0.33856964 1.1008631 6946816
0.099021174 0.334319 1.0870421 7733505
0.10098293 0.33432212 1.0870522 7995649
0.10294472 0.33432522 1.0870624 7995649
0.10490655 0.33432835 1.0870725 7995649
0.10686842 0.33433148 1.0870826 7995649
0.10883032 0.33433458 1.0870928 7995649
0.11079226 0.33433771 1.0871029 7995649
0.11275423 0.33434081 1.087113 7995649
0.11471625 0.33434394 1.0871232 7995649
0.1166783 0.33434704 1.0871333 7995649
0.11864039 0.33435017 1.0871434 7995649
0.12060252 0.33435333 1.0871537 7995649
0.12256467 0.33435643 1.0871638 7995649
0.12452687 0.33435956 1.0871739 7995649
0.1264891 0.33436266 1.0871841 7995649
0.12845138 0.33436579 1.0871942 7995649
0.1304137 0.33436894 1.0872045 7995649
0.13237603 0.33437204 1.0872146 7995649
0.13433841 0.33437517 1.0872247 7995649
0.13630083 0.3343783 1.0872349 7995649
0.13826329 0.3343814 1.087245 7995649
0.14022578 0.33438456 1.0872552 7995649
0.14218831 0.33438766 1.0872654 7995649
0.14415087 0.33439079 1.0872755 7995649
0.14611347 0.33439392 1.0872856 7995649
0.1480761 0.33439702 1.0872958 7995649
0.15003879 0.33440018 1.087306 7995649
0.1520015 0.33440331 1.0873162 7995649
0.15396424 0.33440641 1.0873263 7995649
0.15592702 0.33440953 1.0873364 7995649
0.15788986 0.33441266 1.0873467 7995649
0.15985271 0.33441579 1.0873568 7995649
0.1618156 0.33441892 1.0873669 7995649
0.16377853 0.33442202 1.0873771 7995649
0.16574152 0.33442518 1.0873873 7995649
0.16770451 0.33442831 1.0873975 7995649
0.16966756 0.33443141 1.0874076 7995649
0.17163062 0.33443454 1.0874177 7995649
0.17359373 0.33443764 1.0874279 7995649
0.1755569 0.3344408 1.0874381 7995649
0.17752008 0.33444393 1.0874482 7995649
0.17948331 0.33444703 1.0874584 7995649
0.18144657 0.33445016 1.0874685 7995649
0.18340987 0.33445331 1.0874788 7995649
0.1853732 0.33445641 1.0874889 7995649
0.18733656 0.33445954 1.087499 7995649
0.18929997 0.33446264 1.0875092 7995649
0.19126344 0.3344658 1.0875194 7995649
0.19322692 0.33446893 1.0875295 7995649
0.19519043 0.33447203 1.0875397 7995649
0.19715397 0.33447516 1.0875498 7995649
0.097994886 0.361422 1.1683155 6946816
0.098099448 0.35419065 1.1449398 6946816
0.098199904 0.34724295 1.122481 6946816
0.098296829 0.34056377 1.1008902 6946816
0.099039674 0.33634266 1.0872452 7733505
0.1010018 0.33634579 1.0872554 7995649
0.10296395 0.33634892 1.0872655 7995649
0.10492615 0.33635205 1.0872756 7995649
0.10688838 0.33635521 1.0872858 7995649
0.10885066 0.33635834 1.0872959 7995649
0.11081296 0.33636147 1.087306 7995649
0.1127753 0.3363646 1.0873162 7995649
0.11473768 0.33636773 1.0873263 7995649
0.1167001 0.33637089 1.0873364 7995649
0.11866257 0.33637404 1.0873467 7995649
0.12062505 0.33637717 1.0873568 7995649
0.12258758 0.3363803 1.0873669 7995649
0.12455014 0.33638343 1.0873771 7995649
0.12651274 0.33638659 1.0873872 7995649
0.12847538 0.33638975 1.0873975 7995649
0.13043806 0.33639288 1.0874076 7995649
0.13240077 0.33639601 1.0874177 7995649
0.13436352 0.33639917 1.0874279 7995649
0.13632631 0.33640233 1.0874381 7995649
0.13828912 0.33640546 1.0874482 7995649
0.14025198 0.33640859 1.0874584 7995649
0.14221488 0.33641174 1.0874685 7995649
0.14417781 0.3364149 1.0874788 7995649
0.14614078 0.33641803 1.0874889 7995649
0.14810379 0.33642116 1.087499 7995649
0.15006682 0.33642432 1.0875092 7995649
0.15202992 0.33642748 1.0875194 7995649
0.15399303 0.33643061 1.0875295 7995649
0.15595616 0.33643374 1.0875397 7995649
0.15791935 0.33643687 1.0875498 7995649
0.15988259 0.33644006 1.0875601 7995649
0.16184585 0.33644319 1.0875702 7995649
0.16380914 0.33644632 1.0875803 7995649
0.16577247 0.33644944 1.0875905 7995649
0.16773586 0.33645263 1.0876007 7995649
0.16969927 0.33645576 1.0876108 7995649
0.1716627 0.33645889 1.087621 7995649
0.1736262 0.33646208 1.0876312 7995649
0.17558971 0.33646521 1.0876414 7995649
0.17755327 0.33646834 1.0876515 7995649
0.17951685 0.33647147 1.0876616 7995649
0.1814805 0.33647466 1.0876719 7995649
0.18344416 0.33647779 1.087682 7995649
0.18540785 0.33648092 1.0876921 7995649
0.18737158 0.33648404 1.0877023 7995649
0.18933538 0.33648723 1.0877125 7995649
0.19129919 0.33649036 1.0877227 7995649
0.19326302 0.33649349 1.0877328 7995649
0.19522692 0.33649665 1.087743 7995649
0.19719084 0.33649981 1.0877532 7995649
0.097997367 0.36353862 1.1683451 6946816
0.098101884 0.35626474 1.1449682 6946816
0.098202303 0.34927621 1.1225084 6946816
0.098299257 0.34255803 1.1009173 6946816
0.099058188 0.33836707 1.0874485 7733505
0.10102068 0.33837023 1.0874586 7995649
0.10298321 0.33837339 1.0874687 7995649
0.10494577 0.33837655 1.0874789 7995649
0.10690837 0.33837971 1.087489 7995649
0.10887101 0.33838284 1.0874991 7995649
0.11083367 0.338386 1.0875093 7995649
0.11279639 0.33838916 1.0875194 7995649
0.11475913 0.33839232 1.0875295 7995649
0.11672191 0.33839545 1.0875397 7995649
0.11868473 0.33839861 1.0875498 7995649
0.1206476 0.33840179 1.0875601 7995649
0.12261049 0.33840495 1.0875702 7995649
0.12457342 0.33840811 1.0875803 7995649
0.12653638 0.33841127 1.0875905 7995649
0.1284994 0.33841446 1.0876007 7995649
0.13046244 0.33841762 1.0876108 7995649
0.13242552 0.33842075 1.087621 7995649
0.13438863 0.33842391 1.0876311 7995649
0.13635179 0.3384271 1.0876414 7995649
0.13831498 0.33843026 1.0876515 7995649
0.14027819 0.33843341 1.0876616 7995649
0.14224146 0.3384366 1.0876719 7995649
0.14420477 0.33843976 1.087682 7995649
0.1461681 0.33844289 1.0876921 7995649
0.14813146 0.33844605 1.0877023 7995649
0.15009488 0.33844924 1.0877125 7995649
0.15205832 0.3384524 1.0877227 7995649
0.1540218 0.33845556 1.0877328 7995649
0.15598533 0.33845875 1.087743 7995649
0.15794888 0.33846191 1.0877532 7995649
0.15991247 0.33846503 1.0877633 7995649
0.1618761 0.33846819 1.0877734 7995649
0.16383977 0.33847138 1.0877837 7995649
0.16580348 0.33847454 1.0877938 7995649
0.16776721 0.3384777 1.087804 7995649
0.16973099 0.33848089 1.0878142 7995649
0.1716948 0.33848405 1.0878243 7995649
0.17365864 0.33848718 1.0878345 7995649
0.17562252 0.33849034 1.0878446 7995649
0.17758647 0.33849353 1.0878549 7995649
0.17955041 0.33849669 1.087865 7995649
0.18151441 0.33849984 1.0878751 7995649
0.18347846 0.33850303 1.0878854 7995649
0.18544252 0.33850619 1.0878955 7995649
0.18740661 0.33850932 1.0879056 7995649
0.18937078 0.33851254 1.0879159 7995649
0.19133495 0.33851567 1.087926 7995649
0.19329916 0.33851883 1.0879362 7995649
0.19526343 0.33852202 1.0879464 7995649
0.19722772 0.33852518 1.0879565 7995649
0.097999848 0.36565533 1.1683747 6946816
0.098104313 0.35833892 1.1449965 6946816
0.098204762 0.35130981 1.1225365 6946816
0.098301671 0.34455234 1.1009444 6946816
0.099076703 0.34039223 1.0876517 7733505
0.10103956 0.34039542 1.0876619 7995649
0.10300245 0.34039858 1.087672 7995649
0.10496538 0.34040177 1.0876821 7995649
0.10692835 0.34040493 1.0876923 7995649
0.10889135 0.34040809 1.0877024 7995649
0.11085439 0.34041128 1.0877125 7995649
0.11281748 0.34041446 1.0877228 7995649
0.11478059 0.34041765 1.0877329 7995649
0.11674374 0.34042081 1.087743 7995649
0.11870693 0.340424 1.0877532 7995649
0.12067015 0.34042716 1.0877633 7995649
0.12263341 0.34043035 1.0877734 7995649
0.12459671 0.34043354 1.0877837 7995649
0.12656005 0.34043673 1.0877938 7995649
0.12852341 0.34043989 1.087804 7995649
0.13048683 0.3404431 1.0878142 7995649
0.13245028 0.34044626 1.0878243 7995649
0.13441375 0.34044942 1.0878345 7995649
0.13637727 0.34045261 1.0878446 7995649
0.13834083 0.34045583 1.0878549 7995649
0.14030443 0.34045899 1.087865 7995649
0.14226805 0.34046215 1.0878751 7995649
0.14423172 0.34046537 1.0878854 7995649
0.14619543 0.34046853 1.0878955 7995649
0.14815916 0.34047171 1.0879056 7995649
0.15012294 0.3404749 1.0879159 7995649
0.15208675 0.34047809 1.087926 7995649
0.1540506 0.34048125 1.0879362 7995649
0.1560145 0.34048447 1.0879464 7995649
0.15797842 0.34048763 1.0879565 7995649
0.15994237 0.34049082 1.0879667 7995649
0.16190638 0.34049401 1.0879769 7995649
0.16387041 0.3404972 1.0879871 7995649
0.16583447 0.34050035 1.0879972 7995649
0.16779859 0.34050357 1.0880075 7995649
0.16976273 0.34050673 1.0880176 7995649
0.1717269 0.34050992 1.0880277 7995649
0.17369111 0.34051308 1.0880378 7995649
0.17565538 0.3405163 1.0880481 7995649
0.17761967 0.34051946 1.0880582 7995649
0.179584 0.34052268 1.0880685 7995649
0.18154836 0.34052584 1.0880786 7995649
0.18351275 0.34052902 1.0880888 7995649
0.1854772 0.34053221 1.088099 7995649
0.18744168 0.3405354 1.0881091 7995649
0.18940617 0.34053856 1.0881193 7995649
0.19137074 0.34054178 1.0881295 7995649
0.19333531 0.34054494 1.0881397 7995649
0.19529992 0.34054813 1.0881498 7995649
0.1972646 0.34055132 1.08816 7995649
0.098002337 0.36777222 1.1684043 6946816
0.098106757 0.36041322 1.145025 6946816
0.09820722 0.35334352 1.1225647 6946816
0.0983041 0.34654677 1.1009716 6946816
0.099095233 0.34241816 1.0878551 7733505
0.10105845 0.34242135 1.0878652 7995649
0.10302171 0.34242454 1.0878754 7995649
0.10498501 0.34242773 1.0878855 7995649
0.10694834 0.34243092 1.0878956 7995649
0.10891171 0.34243411 1.0879058 7995649
0.11087513 0.34243736 1.087916 7995649
0.11283857 0.34244055 1.0879261 7995649
0.11480205 0.34244373 1.0879363 7995649
0.11676557 0.34244692 1.0879464 7995649
0.11872912 0.34245011 1.0879565 7995649
0.12069271 0.3424533 1.0879667 7995649
0.12265633 0.34245649 1.0879768 7995649
0.12462001 0.34245971 1.0879871 7995649
0.12658371 0.3424629 1.0879972 7995649
0.12854744 0.34246609 1.0880073 7995649
0.13051122 0.3424693 1.0880176 7995649
0.13247503 0.34247249 1.0880277 7995649
0.13443889 0.34247568 1.0880378 7995649
0.13640279 0.34247893 1.0880481 7995649
0.1383667 0.34248212 1.0880582 7995649
0.14033066 0.34248531 1.0880684 7995649
0.14229466 0.34248853 1.0880786 7995649
0.14425869 0.34249172 1.0880888 7995649
0.14622276 0.3424949 1.0880989 7995649
0.14818688 0.34249812 1.0881091 7995649
0.15015101 0.34250131 1.0881193 7995649
0.1521152 0.34250456 1.0881295 7995649
0.15407941 0.34250775 1.0881397 7995649
0.15604366 0.34251094 1.0881498 7995649
0.15800796 0.34251416 1.08816 7995649
0.15997228 0.34251735 1.0881702 7995649
0.16193664 0.34252053 1.0881803 7995649
0.16390106 0.34252375 1.0881906 7995649
0.16586548 0.34252694 1.0882007 7995649
0.16782996 0.34253013 1.0882108 7995649
0.16979447 0.34253338 1.0882211 7995649
0.17175902 0.34253657 1.0882312 7995649
0.17372359 0.34253976 1.0882413 7995649
0.17568824 0.34254298 1.0882516 7995649
0.17765288 0.34254616 1.0882617 7995649
0.17961758 0.34254938 1.088272 7995649
0.18158232 0.34255257 1.0882821 7995649
0.18354708 0.34255576 1.0882922 7995649
0.18551189 0.34255901 1.0883025 7995649
0.18747672 0.3425622 1.0883126 7995649
0.18944159 0.34256539 1.0883228 7995649
0.19140652 0.34256861 1.088333 7995649
0.19337147 0.34257179 1.0883431 7995649
0.19533648 0.34257501 1.0883534 7995649
0.19730149 0.3425782 1.0883635 7995649
0.098004818 0.36988914 1.1684339 6946816
0.098109186 0.36248761 1.1450534 6946816
0.098209694 0.35537735 1.1225929 6946816
0.098306514 0.34854129 1.1009986 6946816
0.099113755 0.34444484 1.0880585 7995649
0.10107736 0.34444809 1.0880687 7995649
0.10304099 0.34445128 1.0880789 7995649
0.10500465 0.3444545 1.088089 7995649
0.10696834 0.34445772 1.0880991 7995649
0.10893209 0.3444609 1.0881093 7995649
0.11089586 0.34446412 1.0881194 7995649
0.11285967 0.34446731 1.0881295 7995649
0.11482353 0.34447056 1.0881398 7995649
0.1167874 0.34447378 1.0881499 7995649
0.11875132 0.344477 1.08816 7995649
0.12071528 0.34448019 1.0881702 7995649
0.12267927 0.34448341 1.0881803 7995649
0.12464332 0.34448665 1.0881906 7995649
0.12660739 0.34448984 1.0882007 7995649
0.12857148 0.34449306 1.0882108 7995649
0.13053563 0.34449631 1.0882211 7995649
0.13249981 0.34449953 1.0882312 7995649
0.13446403 0.34450272 1.0882413 7995649
0.1364283 0.34450597 1.0882516 7995649
0.13839258 0.34450918 1.0882617 7995649
0.1403569 0.34451237 1.0882719 7995649
0.14232127 0.34451562 1.0882821 7995649
0.14428566 0.34451884 1.0882922 7995649
0.14625011 0.34452209 1.0883025 7995649
0.14821458 0.34452528 1.0883126 7995649
0.15017909 0.3445285 1.0883228 7995649
0.15214364 0.34453174 1.088333 7995649
0.15410823 0.34453496 1.0883431 7995649
0.15607285 0.34453821 1.0883534 7995649
0.15803751 0.3445414 1.0883635 7995649
0.1600022 0.34454462 1.0883737 7995649
0.16196693 0.34454787 1.0883839 7995649
0.1639317 0.34455106 1.088394 7995649
0.16589651 0.34455428 1.0884042 7995649
0.16786136 0.34455752 1.0884144 7995649
0.16982622 0.34456074 1.0884246 7995649
0.17179115 0.34456396 1.0884348 7995649
0.17375609 0.34456718 1.0884449 7995649
0.17572108 0.3445704 1.0884551 7995649
0.17768613 0.34457365 1.0884653 7995649
0.17965117 0.34457684 1.0884755 7995649
0.18161629 0.34458008 1.0884857 7995649
0.18358141 0.3445833 1.0884959 7995649
0.18554658 0.34458649 1.088506 7995649
0.1875118 0.34458974 1.0885162 7995649
0.18947704 0.34459296 1.0885264 7995649
0.19144234 0.34459621 1.0885366 7995649
0.19340764 0.3445994 1.0885468 7995649
0.19537301 0.34460264 1.088557 7995649
0.1973384 0.34460586 1.0885671 7995649
0.098007299 0.37200618 1.1684635 6946816
0.098111622 0.36456215 1.1450819 6946816
0.098212153 0.35741124 1.1226211 6946816
0.098308928 0.3505359 1.1010257 6946816
0.099132299 0.34647229 1.0882621 7995649
0.10109626 0.34647554 1.0882722 7995649
0.10306025 0.34647876 1.0882823 7995649
0.10502429 0.34648198 1.0882925 7995649
0.10698835 0.3464852 1.0883026 7995649
0.10895247 0.34648848 1.0883129 7995649
0.11091661 0.34649169 1.088323 7995649
0.11288078 0.34649491 1.0883331 7995649
0.114845 0.34649816 1.0883433 7995649
0.11680925 0.34650138 1.0883534 7995649
0.11877354 0.34650463 1.0883636 7995649
0.12073787 0.34650788 1.0883738 7995649
0.12270223 0.3465111 1.0883839 7995649
0.12466662 0.34651431 1.088394 7995649
0.12663105 0.34651753 1.0884042 7995649
0.12859555 0.34652081 1.0884144 7995649
0.13056004 0.34652403 1.0884246 7995649
0.13252461 0.34652731 1.0884348 7995649
0.13448918 0.34653053 1.0884449 7995649
0.13645381 0.34653375 1.0884551 7995649
0.13841847 0.34653702 1.0884653 7995649
0.14038315 0.34654024 1.0884755 7995649
0.1423479 0.34654352 1.0884857 7995649
0.14431266 0.34654674 1.0884959 7995649
0.14627746 0.34654996 1.088506 7995649
0.14824231 0.34655324 1.0885162 7995649
0.15020719 0.34655645 1.0885264 7995649
0.15217212 0.3465597 1.0885366 7995649
0.15413706 0.34656295 1.0885468 7995649
0.15610205 0.34656617 1.0885569 7995649
0.15806708 0.34656942 1.0885671 7995649
0.16003214 0.34657267 1.0885773 7995649
0.16199724 0.34657592 1.0885875 7995649
0.16396236 0.34657913 1.0885977 7995649
0.16592756 0.34658241 1.0886079 7995649
0.16789275 0.34658563 1.088618 7995649
0.16985799 0.34658885 1.0886282 7995649
0.17182329 0.34659213 1.0886384 7995649
0.17378861 0.34659535 1.0886486 7995649
0.17575397 0.34659863 1.0886588 7995649
0.17771935 0.34660184 1.0886689 7995649
0.1796848 0.34660509 1.0886792 7995649
0.18165025 0.34660834 1.0886893 7995649
0.18361576 0.34661156 1.0886995 7995649
0.18558131 0.34661481 1.0887097 7995649
0.18754688 0.34661806 1.0887198 7995649
0.18951251 0.3466213 1.0887301 7995649
0.19147815 0.34662452 1.0887402 7995649
0.19344385 0.3466278 1.0887505 7995649
0.19540955 0.34663102 1.0887606 7995649
0.19737533 0.3466343 1.0887709 7995649
0.098009787 0.37412339 1.1684932 6946816
0.098114058 0.36663672 1.1451102 6946816
0.098214626 0.35944527 1.1226493 6946816
0.098311357 0.35253063 1.1010529 6946816
0.099150836 0.34850049 1.0884656 7995649
0.10111517 0.34850377 1.0884758 7995649
0.10307954 0.34850702 1.088486 7995649
0.10504393 0.34851024 1.0884961 7995649
0.10700837 0.34851348 1.0885062 7995649
0.10897285 0.34851676 1.0885165 7995649
0.11093736 0.34852001 1.0885266 7995649
0.1129019 0.34852326 1.0885367 7995649
0.11486648 0.34852651 1.0885469 7995649
0.1168311 0.34852976 1.088557 7995649
0.11879577 0.34853303 1.0885673 7995649
0.12076046 0.34853628 1.0885774 7995649
0.12272518 0.34853953 1.0885875 7995649
0.12468994 0.34854278 1.0885977 7995649
0.12665476 0.34854606 1.0886079 7995649
0.1286196 0.34854931 1.088618 7995649
0.13058448 0.34855253 1.0886282 7995649
0.13254939 0.34855583 1.0886384 7995649
0.13451435 0.34855905 1.0886486 7995649
0.13647935 0.34856236 1.0886588 7995649
0.13844436 0.34856558 1.0886689 7995649
0.14040942 0.34856883 1.0886791 7995649
0.14237453 0.34857211 1.0886893 7995649
0.14433965 0.34857535 1.0886995 7995649
0.14630485 0.34857863 1.0887097 7995649
0.14827004 0.34858188 1.0887198 7995649
0.1502353 0.34858516 1.0887301 7995649
0.15220058 0.34858841 1.0887402 7995649
0.15416591 0.34859169 1.0887505 7995649
0.15613125 0.34859493 1.0887606 7995649
0.15809664 0.34859818 1.0887707 7995649
0.16006209 0.34860146 1.088781 7995649
0.16202754 0.34860471 1.0887911 7995649
0.16399306 0.34860799 1.0888014 7995649
0.16595858 0.34861124 1.0888115 7995649
0.16792418 0.34861451 1.0888218 7995649
0.16988978 0.34861776 1.0888319 7995649
0.17185545 0.34862104 1.0888422 7995649
0.17382112 0.34862429 1.0888523 7995649
0.17578687 0.34862757 1.0888625 7995649
0.17775261 0.34863082 1.0888727 7995649
0.17971842 0.34863409 1.0888829 7995649
0.18168426 0.34863734 1.0888931 7995649
0.18365011 0.34864059 1.0889032 7995649
0.18561603 0.34864387 1.0889134 7995649
0.18758197 0.34864712 1.0889236 7995649
0.18954796 0.3486504 1.0889338 7995649
0.19151397 0.34865364 1.088944 7995649
0.19348004 0.34865692 1.0889542 7995649
0.19544612 0.34866017 1.0889643 7995649
0.19741227 0.34866345 1.0889746 7995649
0.098012269 0.37624064 1.1685227 6946816
0.098116539 0.36871162 1.1451392 6946816
0.098217092 0.3614794 1.1226774 6946816
0.098313771 0.35452542 1.1010799 6946816
0.099169396 0.35052946 1.0886693 7995649
0.10113409 0.35053271 1.0886794 7995649
0.10309882 0.35053599 1.0886896 7995649
0.10506359 0.35053927 1.0886998 7995649
0.10702839 0.35054255 1.08871 7995649
0.10899323 0.35054579 1.0887201 7995649
0.11095811 0.35054907 1.0887302 7995649
0.11292303 0.35055238 1.0887405 7995649
0.11488798 0.35055563 1.0887506 7995649
0.11685296 0.35055891 1.0887607 7995649
0.11881799 0.35056216 1.0887709 7995649
0.12078305 0.35056546 1.0887811 7995649
0.12274815 0.35056871 1.0887913 7995649
0.12471328 0.35057199 1.0888014 7995649
0.12667847 0.3505753 1.0888116 7995649
0.12864366 0.35057855 1.0888218 7995649
0.13060892 0.35058179 1.0888319 7995649
0.1325742 0.3505851 1.0888422 7995649
0.13453951 0.35058838 1.0888523 7995649
0.13650489 0.35059166 1.0888625 7995649
0.13847026 0.35059494 1.0888727 7995649
0.1404357 0.35059819 1.0888828 7995649
0.14240117 0.35060149 1.0888931 7995649
0.14436667 0.35060477 1.0889032 7995649
0.14633222 0.35060805 1.0889134 7995649
0.14829779 0.35061133 1.0889236 7995649
0.15026341 0.35061464 1.0889338 7995649
0.15222906 0.35061789 1.088944 7995649
0.15419476 0.35062119 1.0889542 7995649
0.15616047 0.35062444 1.0889643 7995649
0.15812624 0.35062775 1.0889746 7995649
0.16009203 0.35063103 1.0889847 7995649
0.16205788 0.35063431 1.088995 7995649
0.16402374 0.35063758 1.0890051 7995649
0.16598967 0.35064089 1.0890154 7995649
0.16795559 0.35064414 1.0890255 7995649
0.16992159 0.35064745 1.0890357 7995649
0.17188761 0.3506507 1.0890459 7995649
0.17385367 0.35065401 1.0890561 7995649
0.17581975 0.35065728 1.0890663 7995649
0.17778589 0.35066056 1.0890765 7995649
0.17975205 0.35066384 1.0890867 7995649
0.18171826 0.35066715 1.0890969 7995649
0.1836845 0.3506704 1.089107 7995649
0.18565078 0.35067371 1.0891173 7995649
0.18761708 0.35067695 1.0891274 7995649
0.18958345 0.35068026 1.0891377 7995649
0.19154982 0.35068351 1.0891478 7995649
0.19351625 0.35068682 1.0891581 7995649
0.19548272 0.3506901 1.0891682 7995649
0.19744922 0.35069337 1.0891784 7995649
0.09801475 0.37835801 1.1685523 6946816
0.09811905 0.37078673 1.1451685 6946816
0.098219559 0.36351362 1.1227057 6946816
0.0983162 0.35652035 1.1011071 6946816
0.099187955 0.35255918 1.088873 7995649
0.10115302 0.35256246 1.0888832 7995649
0.10311812 0.35256577 1.0888934 7995649
0.10508326 0.35256904 1.0889035 7995649
0.10704842 0.35257232 1.0889137 7995649
0.10901363 0.3525756 1.0889238 7995649
0.11097889 0.35257894 1.0889341 7995649
0.11294416 0.35258222 1.0889442 7995649
0.11490948 0.35258549 1.0889543 7995649
0.11687484 0.3525888 1.0889646 7995649
0.11884023 0.35259208 1.0889747 7995649
0.12080566 0.35259539 1.0889848 7995649
0.12277114 0.3525987 1.0889951 7995649
0.12473663 0.35260198 1.0890052 7995649
0.12670216 0.35260525 1.0890154 7995649
0.12866774 0.35260853 1.0890255 7995649
0.13063335 0.35261187 1.0890357 7995649
0.13259901 0.35261515 1.0890459 7995649
0.1345647 0.35261846 1.0890561 7995649
0.13653043 0.35262173 1.0890663 7995649
0.13849619 0.35262504 1.0890765 7995649
0.14046198 0.35262835 1.0890867 7995649
0.14242783 0.35263166 1.0890969 7995649
0.1443937 0.35263494 1.089107 7995649
0.14635961 0.35263824 1.0891173 7995649
0.14832555 0.35264152 1.0891274 7995649
0.15029155 0.35264486 1.0891377 7995649
0.15225755 0.35264814 1.0891478 7995649
0.15422362 0.35265145 1.0891581 7995649
0.15618971 0.35265473 1.0891682 7995649
0.15815584 0.35265806 1.0891784 7995649
0.16012201 0.35266134 1.0891886 7995649
0.16208822 0.35266465 1.0891988 7995649
0.16405444 0.35266793 1.089209 7995649
0.16602074 0.35267127 1.0892192 7995649
0.16798703 0.35267454 1.0892293 7995649
0.16995339 0.35267785 1.0892396 7995649
0.17191978 0.35268113 1.0892497 7995649
0.17388621 0.35268447 1.08926 7995649
0.17585266 0.35268775 1.0892701 7995649
0.17781916 0.35269105 1.0892804 7995649
0.1797857 0.35269433 1.0892905 7995649
0.18175228 0.35269767 1.0893008 7995649
0.18371888 0.35270095 1.0893109 7995649
0.18568553 0.35270426 1.0893211 7995649
0.18765222 0.35270756 1.0893314 7995649
0.18961893 0.35271087 1.0893415 7995649
0.19158569 0.35271418 1.0893518 7995649
0.19355248 0.35271746 1.0893619 7995649
0.19551931 0.35272077 1.0893722 7995649
0.19748618 0.35272405 1.0893823 7995649
0.097908758 0.38840726 1.1929433 7947332
0.098017238 0.38047552 1.168582 6946816
0.098121561 0.37286195 1.1451979 6946816
0.098222025 0.36554793 1.1227338 6946816
0.098318614 0.35851535 1.1011342 6946816
0.099206522 0.35458967 1.0890769 7995649
0.10117195 0.35459295 1.089087 7995649
0.10313742 0.35459626 1.0890971 7995649
0.10510293 0.3545996 1.0891074 7995649
0.10706846 0.3546029 1.0891175 7995649
0.10903404 0.35460618 1.0891277 7995649
0.11099966 0.35460952 1.0891379 7995649
0.11296531 0.35461283 1.089148 7995649
0.11493099 0.35461614 1.0891582 7995649
0.11689672 0.35461947 1.0891684 7995649
0.11886248 0.35462275 1.0891786 7995649
0.12082827 0.35462606 1.0891887 7995649
0.12279411 0.3546294 1.0891989 7995649
0.12475998 0.35463271 1.0892091 7995649
0.12672588 0.35463601 1.0892192 7995649
0.12869184 0.35463935 1.0892295 7995649
0.13065781 0.35464263 1.0892396 7995649
0.13262382 0.35464594 1.0892497 7995649
0.1345899 0.35464928 1.08926 7995649
0.13655597 0.35465258 1.0892701 7995649
0.13852212 0.35465592 1.0892804 7995649
0.14048828 0.3546592 1.0892905 7995649
0.14245449 0.35466254 1.0893008 7995649
0.14442071 0.35466585 1.0893109 7995649
0.14638701 0.35466918 1.0893211 7995649
0.14835331 0.35467249 1.0893313 7995649
0.15031967 0.35467583 1.0893415 7995649
0.15228607 0.35467917 1.0893518 7995649
0.15425248 0.35468245 1.0893619 7995649
0.15621895 0.35468578 1.0893722 7995649
0.15818544 0.35468909 1.0893823 7995649
0.16015199 0.35469243 1.0893925 7995649
0.16211855 0.35469574 1.0894027 7995649
0.16408516 0.35469908 1.0894129 7995649
0.16605181 0.35470238 1.0894231 7995649
0.16801849 0.35470572 1.0894333 7995649
0.1699852 0.354709 1.0894434 7995649
0.17195196 0.35471234 1.0894537 7995649
0.17391877 0.35471568 1.0894639 7995649
0.17588559 0.35471898 1.0894741 7995649
0.17785247 0.35472232 1.0894843 7995649
0.17981936 0.35472563 1.0894945 7995649
0.18178631 0.35472897 1.0895047 7995649
0.18375327 0.35473225 1.0895149 7995649
0.18572029 0.35473558 1.0895251 7995649
0.18768735 0.35473892 1.0895354 7995649
0.18965444 0.35474223 1.0895455 7995649
0.19162157 0.35474557 1.0895557 7995649
0.19358872 0.35474887 1.0895659 7995649
0.19555593 0.35475221 1.0895761 7995649
0.19752315 0.35475549 1.0895863 7995649
0.097911291 0.39056921 1.1929742 7947332
0.098019719 0.3825931 1.1686115 6946816
0.098124079 0.37493727 1.1452272 6946816
0.098224491 0.36758238 1.1227621 6946816
0.098321043 0.3605105 1.1011614 6946816
0.099225096 0.35662088 1.0892807 7995649
0.1011909 0.35662425 1.089291 7995649
0.10315673 0.35662755 1.0893011 7995649
0.1051226 0.35663086 1.0893112 7995649
0.10708851 0.35663423 1.0893215 7995649
0.10905445 0.35663754 1.0893316 7995649
0.11102043 0.35664088 1.0893418 7995649
0.11298646 0.35664421 1.089352 7995649
0.11495251 0.35664755 1.0893621 7995649
0.1169186 0.35665086 1.0893723 7995649
0.11888473 0.3566542 1.0893825 7995649
0.1208509 0.35665753 1.0893927 7995649
0.1228171 0.35666084 1.0894028 7995649
0.12478334 0.35666421 1.089413 7995649
