# .PCD v0.7 - Point Cloud Data file format
VERSION 0.7
FIELDS x y z rgb
SIZE 4 4 4 4
TYPE F F F U
COUNT 1 1 1 1
WIDTH 1224
HEIGHT 1
VIEWPOINT 0 0 0 1 0 0 0
POINTS 1224
DATA ascii
-0.0010949393 0.3120577 1.2140309 65936
0.0010950603 0.31209219 1.214165 65935
0.0032855524 0.31212747 1.2143023 65935
0.0054775435 0.31221998 1.2146622 65935
0.0076711876 0.31232694 1.2150782 65934
0.0098677268 0.31247804 1.2156661 65934
0.0120676 0.31266055 1.2163762 65933
0.014271582 0.312877 1.2172183 65932
0.016480939 0.31313783 1.218233 65931
0.018695697 0.31342787 1.2193613 65930
0.020921212 0.31381819 1.2208798 65929
0.023158437 0.31429306 1.2227273 65928
0.025408767 0.31484777 1.2248853 65926
0.02767255 0.31546706 1.2272947 65924
0.029952088 0.31616092 1.2299941 65922
0.032286689 0.31730023 1.2344264 127
0.034685392 0.31888184 1.2405795 2237055
-0.039189931 0.32135746 1.2414984 2237061
-0.036729608 0.31943628 1.2340764 65924
-0.034380995 0.31830147 1.2296922 65926
-0.032081228 0.31749356 1.226571 65928
-0.029802885 0.31679362 1.2238669 65930
-0.027542034 0.31618255 1.2215062 65931
-0.025302185 0.31572726 1.2197473 65932
-0.023074439 0.31535065 1.2182924 65933
-0.020853572 0.31499869 1.2169325 65934
-0.018641561 0.31471342 1.2158306 65934
-0.016434627 0.31444916 1.2148097 65935
-0.014233753 0.31423748 1.2139918 65935
-0.012036863 0.3140527 1.2132779 65935
-0.0098437369 0.31390584 1.2127106 65936
-0.0076535731 0.31379649 1.2122881 65936
-0.0054652891 0.31370759 1.2119447 65936
-0.0032787996 0.31367183 1.2118065 65936
-0.0010928166 0.31363836 1.2116772 65936
0.0010929368 0.31367287 1.2118106 65935
0.0032791754 0.31370777 1.2119454 65935
0.0054669026 0.31380022 1.2123026 65935
0.0076562762 0.31390733 1.2127163 65934
0.0098485183 0.3140583 1.2132996 65934
0.012044088 0.3142412 1.2140062 65933
0.014243709 0.31445727 1.2148409 65932
0.016448762 0.31471968 1.2158546 65931
0.018659076 0.31500912 1.2169728 65930
0.020877367 0.31535813 1.2183212 65929
0.023102777 0.31573793 1.2197886 65928
0.025339428 0.316192 1.2215427 65927
0.027596598 0.31680897 1.2239262 65925
0.029869758 0.31750447 1.2266132 65923
0.032164171 0.31831437 1.2297421 65921
0.034505542 0.31945452 1.2341468 126
0.036950901 0.32136089 1.2415116 2237053
-0.041532639 0.32440358 1.2445934 4473986
-0.038975857 0.32182923 1.2347167 65922
-0.036597785 0.32050788 1.2296473 65925
-0.034285683 0.31963104 1.2262832 65927
-0.031993143 0.31882823 1.2232032 65929
-0.02973189 0.31824136 1.2209516 65930
-0.02748719 0.31775194 1.2190739 65931
-0.025252409 0.31730202 1.2173477 65932
-0.023029236 0.31692615 1.2159058 65933
-0.020812752 0.3165729 1.2145505 65934
-0.018605193 0.31628829 1.2134585 65934
-0.016402628 0.31602395 1.2124444 65935
-0.014206103 0.31581262 1.2116336 65935
-0.012013484 0.31562698 1.2109214 65935
-0.0098246364 0.31547999 1.2103574 65936
-0.0076388074 0.31537363 1.2099494 65936
-0.005454964 0.31529692 1.209655 65936
-0.0032726547 0.31526574 1.2095355 65936
-0.0010907857 0.31523708 1.2094254 65935
0.0010908903 0.31526729 1.2095414 65935
0.0032729844 0.31529748 1.2096573 65935
0.0054563601 0.31537759 1.2099646 65935
0.0076414258 0.31548172 1.2103641 65934
0.0098293833 0.31563243 1.2109423 65934
0.01202067 0.31581578 1.2116457 65933
0.014215943 0.31603137 1.2124728 65932
0.016416697 0.31629503 1.2134844 65931
0.018622598 0.31658414 1.2145936 65931
0.020836512 0.31693432 1.215937 65930
0.023057368 0.31731328 1.217391 65928
0.025288953 0.31776118 1.2191094 65927
0.027530814 0.3182562 1.2210085 65926
0.029787859 0.31884041 1.2232499 65924
0.032075088 0.31964487 1.2263362 65922
0.034381632 0.32052553 1.229715 65919
0.036750033 0.32184121 1.2347627 124
0.039294951 0.32446402 1.2448252 4473984
-0.041252505 0.32444537 1.2361987 128
-0.038836565 0.3228983 1.230304 65923
-0.036495373 0.32182282 1.2262063 65926
-0.03419758 0.32101598 1.223132 65928
-0.031927411 0.32037503 1.2206899 65929
-0.029673077 0.31980982 1.2185364 65930
-0.027433135 0.31932169 1.2166765 65931
-0.025202828 0.31887057 1.2149576 65932
-0.022984223 0.31849566 1.2135291 65933
-0.020772407 0.31814581 1.2121961 65934
-0.018571457 0.31789964 1.2112582 65934
-0.016374733 0.31766984 1.2103826 65935
-0.014183288 0.31748748 1.2096877 65935
-0.011995147 0.31732616 1.2090731 65935
-0.0098102698 0.31719872 1.2085875 65935
-0.0076279175 0.31710342 1.2082244 65935
-0.0054471889 0.31702638 1.2079309 65935
-0.0032679881 0.31699485 1.2078108 65935
-0.0010892304 0.31696603 1.207701 65935
0.0010893362 0.31699684 1.2078184 65935
0.0032683213 0.31702718 1.2079339 65935
0.0054485817 0.31710744 1.2082398 65934
0.0076302653 0.31720102 1.2085963 65934
0.0098143797 0.31733161 1.2090939 65933
0.012001385 0.31749117 1.2097019 65933
0.014191789 0.31767771 1.2104126 65932
0.016386956 0.31790695 1.2112861 65931
0.018586526 0.31815761 1.2122411 65931
0.020795811 0.31850427 1.2135619 65930
0.023012139 0.3188825 1.215003 65928
0.025239224 0.31933105 1.2167121 65927
0.027476359 0.31982481 1.2185935 65926
0.029726654 0.32038727 1.2207365 65924
0.031992849 0.32103169 1.2231919 65922
0.034285426 0.32184061 1.226274 65920
0.036619056 0.3229135 1.2303619 125
0.039024927 0.32446438 1.2362711 121
-0.04357582 0.32737732 1.2388555 4473987
-0.041095916 0.32543522 1.2315062 65921
-0.038727768 0.32420674 1.2268574 65924
-0.036410172 0.32327819 1.2233436 65926
-0.034129474 0.32257858 1.2206962 65928
-0.031864304 0.32193935 1.2182772 65929
-0.029614503 0.32137218 1.216131 65930
-0.027380243 0.32089645 1.2143307 65931
-0.025159065 0.32050461 1.2128478 65932
-0.022948118 0.32018089 1.2116228 65933
-0.020742614 0.31987295 1.2104576 65933
-0.018544864 0.31962618 1.2095238 65934
-0.016351305 0.31939548 1.2086507 65934
-0.014163047 0.3192133 1.2079613 65935
-0.011978045 0.31905156 1.2073493 65935
-0.0097963009 0.31892401 1.2068666 65935
-0.0076170587 0.31882831 1.2065045 65935
-0.0054394393 0.31875113 1.2062124 65935
-0.0032633345 0.318719 1.2060908 65935
-0.0010876794 0.31869009 1.2059814 65935
0.0010877862 0.31872132 1.2060996 65935
0.0032636714 0.31875193 1.2062154 65934
0.0054408251 0.31883234 1.2065197 65934
0.0076194 0.3189263 1.2068753 65934
0.0098003857 0.31905702 1.2073699 65933
0.011984256 0.31921703 1.2079754 65933
0.01417149 0.31940359 1.2086815 65932
0.016363496 0.31963363 1.2095519 65931
0.01855984 0.3198843 1.2105005 65930
0.020763163 0.32018983 1.2116567 65929
0.022972235 0.32051739 1.2128962 65928
0.025190679 0.32090735 1.2143719 65927
0.027422117 0.32138723 1.2161878 65926
0.029667906 0.32195175 1.2183241 65924
0.031929173 0.32259476 1.2207574 65922
0.034204792 0.32329044 1.22339 65920
0.036516521 0.32422248 1.2269169 65918
0.038876805 0.32545441 1.2315788 123
0.041346308 0.32741806 1.2390096 2237051
-0.043386668 0.32818121 1.2334778 127
-0.040979113 0.32672536 1.228006 65922
-0.03864124 0.32569045 1.2241163 65924
-0.036337573 0.32483587 1.2209044 65926
-0.034061607 0.32413465 1.2182688 65928
-0.031805076 0.3235344 1.2160127 65929
-0.029566558 0.32304201 1.2141621 65930
-0.027340744 0.32262078 1.2125789 65931
-0.025122812 0.32222736 1.2111002 65932
-0.022915212 0.32190418 1.2098855 65933
-0.020712908 0.32159516 1.208724 65933
-0.018518375 0.32134828 1.2077961 65934
-0.01632794 0.32111615 1.2069237 65934
-0.01414285 0.32093391 1.2062387 65934
-0.011960991 0.32077202 1.2056303 65935
-0.009782372 0.32064441 1.2051506 65935
-0.0076062302 0.32054827 1.2047893 65935
-0.0054317112 0.32047099 1.2044988 65935
-0.0032586982 0.32043865 1.2043773 65935
-0.001086133 0.32040921 1.2042667 65934
0.0010862394 0.32044062 1.2043847 65934
0.0032590348 0.32047176 1.2045017 65934
0.0054330905 0.32055232 1.2048045 65934
0.0076085664 0.32064673 1.2051593 65933
0.0097864335 0.32077757 1.205651 65933
0.011967178 0.32093796 1.206254 65932
0.014151252 0.32112455 1.2069553 65932
0.016340105 0.3213554 1.2078229 65931
0.018533232 0.3216061 1.2087651 65930
0.02073336 0.32191271 1.2099175 65929
0.022939136 0.32224023 1.2111486 65928
0.025154343 0.32263181 1.2126203 65927
0.027377732 0.32305723 1.2142193 65926
0.029612819 0.32354745 1.2160618 65924
0.031865723 0.32415134 1.2183315 65922
0.034136623 0.3248485 1.2209518 65921
0.036434956 0.32570645 1.2241764 65918
0.038766377 0.32674518 1.2280805 123
0.041164741 0.32820535 1.2335687 120
-0.045769617 0.33155063 1.2377504 4473986
-0.043260761 0.32944733 1.2298983 65919
-0.040888131 0.32821012 1.2252796 65922
-0.038563609 0.32723978 1.221657 65924
-0.036268283 0.32641456 1.2185763 65926
-0.034006704 0.32580614 1.216305 65928
-0.031758953 0.32525548 1.2142493 65929
-0.029523751 0.32476127 1.2124043 65930
-0.027301362 0.32434016 1.2108322 65931
-0.025086666 0.32394522 1.2093577 65932
-0.022882368 0.32362205 1.2081513 65932
-0.020683289 0.32331243 1.2069955 65933
-0.018491965 0.32306552 1.2060736 65933
-0.016304648 0.32283202 1.205202 65934
-0.014122711 0.32264963 1.2045211 65934
-0.011943974 0.32248729 1.203915 65934
-0.0097684814 0.32235989 1.2034394 65934
-0.0075955214 0.32226712 1.2030931 65934
-0.0054241815 0.32219639 1.202829 65934
-0.0032542103 0.32216683 1.2027186 65934
-0.0010846449 0.32213956 1.2026168 65934
0.001084742 0.32216838 1.2027245 65934
0.0032545174 0.32219723 1.2028321 65934
0.0054254439 0.32227138 1.2031089 65933
0.0075977626 0.32236221 1.2034481 65933
0.0097725205 0.32249317 1.2039369 65932
0.011950156 0.32265419 1.2045381 65932
0.014131072 0.32284066 1.2052342 65931
0.016316785 0.32307234 1.2060992 65930
0.0185067 0.32332295 1.2070347 65930
0.020703645 0.32363069 1.2081835 65929
0.022906134 0.32395819 1.2094061 65928
0.025118111 0.32435125 1.2108736 65927
0.027338095 0.32477656 1.2124614 65925
0.029569859 0.32526845 1.2142977 65924
0.03181446 0.32582393 1.2163714 65922
0.034071755 0.3264294 1.2186317 65921
0.03636181 0.32725626 1.2217187 65918
0.038680334 0.32823026 1.2253548 65916
0.041045308 0.3294718 1.2299896 121
0.043541919 0.33158848 1.2378917 2237049
-0.045594856 0.33250883 1.2330244 124
-0.04315941 0.33088881 1.2270169 65920
-0.040805012 0.3297486 1.2227888 65922
-0.038496405 0.32886928 1.2195281 65924
-0.036215417 0.32813364 1.2168001 65926
-0.033957109 0.32752177 1.2145312 65927
-0.031712942 0.32697135 1.2124901 65929
-0.029481066 0.32647553 1.2106514 65930
-0.027262092 0.3260546 1.2090906 65930
-0.025050623 0.32565811 1.2076203 65931
-0.022850828 0.32535228 1.2064861 65932
-0.020656513 0.3250683 1.205433 65932
-0.018469322 0.32484281 1.2045969 65933
-0.016285712 0.3246285 1.2038022 65933
-0.014107005 0.32446113 1.2031815 65933
-0.01193121 0.324312 1.2026285 65934
-0.0097583905 0.32419541 1.2021962 65934
-0.0075877858 0.32410687 1.2018678 65934
-0.005418662 0.32403597 1.201605 65934
-0.0032508993 0.32400629 1.2014949 65934
-0.0010835414 0.32397887 1.2013932 65933
0.0010836379 0.32400775 1.2015003 65933
0.0032512045 0.32403672 1.2016077 65933
0.005419916 0.32411098 1.2018831 65933
0.0075899255 0.32419825 1.2022067 65932
0.0097620981 0.32431859 1.2026529 65932
0.011936901 0.32446668 1.2032021 65931
0.014114676 0.32463753 1.2038357 65931
0.016296847 0.32485047 1.2046254 65930
0.018482806 0.32507995 1.2054763 65929
0.020675214 0.32536259 1.2065244 65928
0.022873227 0.32567117 1.2076687 65927
0.025081979 0.32606575 1.2091318 65926
0.02729857 0.32649088 1.2107084 65925
0.02952702 0.32698441 1.2125385 65924
0.031768072 0.32753977 1.2145979 65922
0.034022022 0.32814789 1.2168529 65920
0.036298577 0.3288871 1.2195941 65918
0.038601767 0.32976937 1.2228658 65916
0.040949222 0.33091396 1.2271103 121
0.043375511 0.33254561 1.2331607 117
-0.048096448 0.33667514 1.2401786 4473984
-0.045471974 0.33383083 1.2297013 125
-0.043070171 0.33241338 1.2244799 65920
-0.040738668 0.33141458 1.2208008 65922
-0.038439892 0.33058307 1.2177378 65924
-0.036162712 0.32984778 1.2150292 65926
-0.033907723 0.32923305 1.2127649 65927
-0.031667981 0.32869178 1.2107711 65928
-0.02944323 0.3282375 1.2090976 65929
-0.027230296 0.32785279 1.2076805 65930
-0.025024071 0.32748893 1.2063402 65931
-0.022827385 0.32719252 1.2052484 65931
-0.020635339 0.32690722 1.2041974 65932
-0.018450463 0.3266817 1.2033668 65932
-0.016269093 0.32646647 1.2025739 65932
-0.014092627 0.32629851 1.2019552 65933
-0.011919052 0.32614863 1.201403 65933
-0.0097484579 0.32603174 1.2009726 65933
-0.0075800666 0.32594284 1.2006451 65933
-0.0054131518 0.32587174 1.2003831 65933
-0.0032475952 0.32584205 1.2002738 65933
-0.0010824401 0.32581449 1.2001722 65933
0.0010825362 0.32584336 1.2002786 65933
0.0032478988 0.32587251 1.2003859 65932
0.0054143998 0.32594687 1.2006599 65932
0.0075821979 0.32603452 1.2009827 65932
0.009752146 0.3261551 1.2014269 65931
0.011924732 0.32630402 1.2019755 65931
0.01410026 0.32647523 1.2026062 65930
0.016280191 0.32668915 1.2033942 65929
0.018463865 0.32691902 1.2042409 65929
0.020654015 0.32720307 1.2052872 65928
0.022849053 0.32750311 1.2063924 65927
0.025052849 0.32786557 1.2077276 65926
0.027263628 0.3282541 1.2091588 65924
0.029485337 0.32870692 1.2108268 65923
0.031721812 0.32925051 1.2128292 65922
0.033972431 0.32986137 1.2150793 65920
0.03624529 0.33060101 1.2178038 65918
0.038538944 0.33143491 1.2208756 65916
0.040864903 0.33244154 1.2245836 121
0.043258108 0.33386388 1.229823 117
0.045870423 0.33675605 1.2404766 2237045
-0.04788591 0.33742863 1.2347498 120
-0.045375701 0.33533749 1.2270977 125
-0.043002326 0.334095 1.2225511 65920
-0.040678263 0.33312199 1.2189906 65922
-0.038383532 0.33229172 1.2159524 65924
-0.036114987 0.33160126 1.2134258 65925
-0.033868503 0.33103731 1.2113621 65926
-0.031635277 0.3305341 1.2095207 65928
-0.029412866 0.33007771 1.2078507 65928
-0.027202308 0.32969198 1.2064391 65929
-0.024998378 0.32932645 1.2051016 65930
-0.022804003 0.3290292 1.2040138 65931
-0.020614211 0.32874241 1.2029644 65931
-0.018431624 0.32851657 1.2021381 65931
-0.01625251 0.32830068 1.2013481 65932
-0.014078286 0.32813236 1.2007321 65932
-0.011906918 0.32798147 1.2001799 65932
-0.0097385449 0.32786435 1.1997514 65932
-0.0075723627 0.32777512 1.1994249 65932
-0.0054076533 0.32770377 1.1991638 65932
-0.0032442969 0.32767397 1.1990547 65932
-0.0010813412 0.32764637 1.1989537 65932
0.001081437 0.3276754 1.19906 65932
0.0032445993 0.32770455 1.1991665 65932
0.0054088961 0.32777911 1.1994394 65931
0.0075744861 0.32786703 1.1997612 65931
0.0097422134 0.32798785 1.2002033 65930
0.011912585 0.32813758 1.2007512 65930
0.014085872 0.32830918 1.2013791 65929
0.016263567 0.32852405 1.2021654 65929
0.018444961 0.32875431 1.2030079 65928
0.020632859 0.32903981 1.2040527 65927
0.022825567 0.32934034 1.2051524 65926
0.025027094 0.32970476 1.206486 65925
0.027235469 0.33009386 1.2079098 65924
0.02945479 0.3305482 1.2095723 65923
0.031685252 0.33105627 1.2114315 65921
0.033927772 0.33161664 1.213482 65920
0.03619206 0.33230892 1.2160153 65918
0.038481809 0.33314252 1.2190657 65915
0.04080034 0.3341217 1.2226489 121
0.043167196 0.33537591 1.2272383 118
0.045663867 0.33746713 1.2348907 2237046
-0.047761671 0.33877465 1.2315463 121
-0.045301426 0.33699843 1.2250892 125
-0.042937621 0.33579424 1.2207116 65919
-0.040623743 0.33487138 1.2173568 65921
-0.038341004 0.33411446 1.2146051 65923
-0.036077384 0.33344248 1.2121623 65925
-0.033833303 0.33287606 1.2101032 65926
-0.031602591 0.33237207 1.208271 65927
-0.029382566 0.33191416 1.2066064 65928
-0.027174402 0.33152771 1.2052015 65929
-0.024972737 0.33116022 1.2038655 65929
-0.022780687 0.33086234 1.2027828 65930
-0.020593125 0.33057386 1.2017339 65930
-0.018412815 0.33034757 1.2009114 65931
-0.016235959 0.33013114 1.2001246 65931
-0.014063976 0.32996249 1.1995115 65931
-0.011894814 0.32981074 1.1989598 65931
-0.0097286534 0.32969326 1.1985327 65932
-0.0075646727 0.32960358 1.1982068 65932
-0.0054021664 0.32953215 1.197947 65932
-0.0032410054 0.3295022 1.1978382 65932
-0.0010802443 0.32947451 1.1977376 65931
0.00108034 0.32950372 1.1978437 65931
0.0032413069 0.32953286 1.1979496 65931
0.0054034032 0.32960761 1.1982213 65931
0.007566791 0.32969591 1.1985424 65930
0.0097323013 0.32981688 1.1989821 65930
0.011900461 0.32996732 1.1995291 65929
0.014071515 0.3301394 1.2001545 65929
0.016246978 0.33035523 1.2009392 65928
0.018426096 0.33058584 1.2017776 65927
0.020611739 0.33087265 1.2028202 65926
0.022802131 0.33117381 1.203915 65925
0.025001382 0.33154008 1.2052464 65924
0.027207373 0.33192992 1.2066637 65923
0.029424304 0.33238566 1.2083204 65922
0.031652275 0.33289462 1.2101706 65921
0.033892449 0.33345795 1.2122185 65919
0.036152098 0.33413306 1.2146727 65917
0.038430564 0.3348949 1.2174423 65915
0.040738698 0.33581898 1.2208016 121
0.043096159 0.33703408 1.2252188 117
0.045545042 0.33881068 1.2316773 113
-0.047668383 0.34033006 1.2291408 121
-0.045232203 0.33868989 1.2232171 65916
-0.042886656 0.33759496 1.2192626 65919
-0.040580578 0.33670911 1.2160633 65921
-0.038300749 0.33595228 1.2133299 65923
-0.036039852 0.33527982 1.2109013 65924
-0.033798173 0.33471096 1.2088467 65925
-0.031569965 0.33420616 1.2070236 65926
-0.02935232 0.33374676 1.2053643 65927
-0.02714655 0.33335963 1.2039663 65928
-0.024947405 0.33299363 1.2026443 65929
-0.022758549 0.3327083 1.2016139 65929
-0.020573907 0.33243102 1.2006124 65930
-0.018396208 0.33221385 1.1998281 65930
-0.016221782 0.33200583 1.1990768 65930
-0.014052039 0.3318443 1.1984935 65931
-0.011884964 0.33169854 1.1979671 65931
-0.0097207576 0.33158582 1.19756 65931
-0.0075586261 0.33149976 1.1972491 65931
-0.0053979028 0.33143124 1.1970016 65931
-0.0032384612 0.33140254 1.196898 65931
-0.0010794008 0.33137605 1.1968023 65931
0.0010794923 0.33140412 1.1969037 65930
0.0032387516 0.33143225 1.1970053 65930
0.0053990907 0.33150417 1.197265 65930
0.007560668 0.33158931 1.1975725 65929
0.0097242668 0.33170554 1.1979923 65929
0.011890405 0.33185038 1.1985154 65928
0.01405929 0.33201554 1.1991119 65928
0.016232399 0.33222309 1.1998615 65927
0.018408967 0.33244428 1.2006603 65926
0.020591799 0.33272013 1.2016566 65926
0.02277912 0.33300903 1.2027 65925
0.024975706 0.3333714 1.2040087 65924
0.027179332 0.3337622 1.2054201 65923
0.029393919 0.33421975 1.2070726 65921
0.031619351 0.33472899 1.2089118 65920
0.033857197 0.33529544 1.2109576 65918
0.036114119 0.33597073 1.2133965 65916
0.038389776 0.33673316 1.2161502 65914
0.040690504 0.33762121 1.2193574 120
0.043029971 0.33872312 1.2233371 117
0.04545607 0.34036618 1.2292712 113
-0.047592562 0.34200236 1.2271857 120
-0.045183394 0.34052852 1.2218972 65916
-0.042840589 0.33942929 1.217953 65918
-0.040537529 0.33854315 1.2147733 65920
-0.038260523 0.33778575 1.2120556 65922
-0.036004707 0.33713499 1.2097205 65923
-0.033767812 0.33658883 1.2077607 65924
-0.031543825 0.33610487 1.2060242 65925
-0.029329794 0.3356632 1.2044393 65926
-0.027127201 0.33529219 1.2031081 65927
-0.0249306 0.33493719 1.2018342 65928
-0.022743281 0.33465114 1.2008078 65928
-0.020560116 0.3343724 1.1998076 65929
-0.018383887 0.33415416 1.1990246 65929
-0.016210925 0.33394504 1.1982741 65929
-0.014042648 0.33378294 1.1976925 65930
-0.011877025 0.33363643 1.1971668 65930
-0.00971427 0.33352327 1.1967608 65930
-0.0075535844 0.33343679 1.1964505 65930
-0.0053943037 0.33336797 1.1962035 65930
-0.0032363022 0.33333912 1.1961 65930
-0.001078681 0.33331242 1.1960042 65930
0.0010787725 0.33334067 1.1961056 65930
0.0032365918 0.33336896 1.196207 65929
0.0053954874 0.33344111 1.196466 65929
0.0075556212 0.3335267 1.1967731 65929
0.0097177681 0.33364338 1.1971917 65928
0.011882455 0.33378896 1.1977141 65928
0.014049873 0.33395466 1.1983087 65927
0.016221514 0.33416316 1.1990569 65926
0.018396588 0.33438504 1.1998529 65926
0.020577939 0.33466226 1.2008477 65925
0.022763729 0.334952 1.2018874 65924
0.024958041 0.33530584 1.2031571 65923
0.027158648 0.3356809 1.2045028 65922
0.029369801 0.33612105 1.2060822 65920
0.03159114 0.33660904 1.2078332 65919
0.033824462 0.33715349 1.2097869 65918
0.036076296 0.33780533 1.2121258 65916
0.038349029 0.33856714 1.2148594 65914
0.040646806 0.33945578 1.218048 119
0.042982623 0.34055462 1.2219909 117
0.045384604 0.34204495 1.2273386 113
0.048030246 0.34514758 1.2384715 4473977
-0.047538679 0.34382626 1.2257963 120
-0.04513469 0.34236315 1.2205801 65915
-0.042799994 0.34130251 1.2167988 65918
-0.040504441 0.34045625 1.2137817 65919
-0.038233355 0.33973065 1.2111949 65921
-0.035980158 0.33908573 1.2088956 65922
-0.033744823 0.33853677 1.2069385 65923
-0.031522438 0.33805096 1.2052065 65924
-0.029309923 0.33760688 1.2036233 65925
-0.027108917 0.33723494 1.2022972 65926
-0.024913816 0.33687812 1.2010251 65927
-0.02272803 0.3365913 1.2000026 65927
-0.020546343 0.33631119 1.1990039 65928
-0.018371589 0.33609203 1.1982225 65928
-0.016200082 0.33588168 1.1974727 65928
-0.014033268 0.33571896 1.1968925 65929
-0.011869096 0.33557174 1.1963676 65929
-0.0097077917 0.33545813 1.1959627 65929
-0.0075485487 0.33537123 1.1956528 65929
-0.0053907088 0.33530208 1.1954063 65929
-0.0032341459 0.33527315 1.1953031 65929
-0.0010779622 0.33524624 1.1952072 65929
0.0010780535 0.33527464 1.1953084 65929
0.0032344346 0.33530307 1.1954098 65928
0.0053918883 0.33537546 1.1956679 65928
0.00755058 0.3354615 1.1959746 65928
0.0097112777 0.33557859 1.1963921 65927
0.011874516 0.33572498 1.196914 65927
0.014040467 0.33589119 1.1975065 65926
0.016210642 0.33610064 1.1982533 65925
0.018384226 0.3363232 1.1990467 65925
0.020564094 0.33660176 1.2000399 65924
0.022748357 0.33689234 1.2010758 65923
0.024941176 0.33724809 1.2023441 65922
0.027140213 0.33762425 1.2036852 65921
0.02934983 0.33806655 1.2052621 65920
0.031569514 0.33855584 1.2070065 65918
0.033801269 0.33910304 1.2089573 65917
0.036050893 0.33975235 1.2112722 65915
0.038317941 0.34048229 1.2138746 65913
0.040608685 0.34133247 1.2169056 119
0.042935681 0.34238455 1.2206564 116
0.045332614 0.34386447 1.2259326 112
0.047887251 0.34634733 1.2347844 2237042
-0.047493044 0.34570518 1.2246196 119
-0.045102008 0.34431532 1.2196963 122
-0.042769887 0.34325576 1.2159429 65917
-0.040476419 0.34240863 1.212942 65918
-0.038207129 0.34168088 1.2103641 65920
-0.035955641 0.34103379 1.2080718 65921
-0.033721868 0.34048209 1.2061175 65923
-0.031501103 0.33999467 1.2043909 65924
-0.029290078 0.33954793 1.2028084 65924
-0.027090639 0.33917481 1.2014866 65925
-0.024897056 0.33881643 1.2002171 65926
-0.022712788 0.33852869 1.1991978 65926
-0.020532589 0.33824739 1.1982013 65927
-0.018359318 0.33802745 1.1974221 65927
-0.016189253 0.33781576 1.1966723 65928
-0.014023902 0.33765242 1.1960937 65928
-0.011861177 0.33750442 1.1955694 65928
-0.0097013218 0.33739042 1.1951656 65928
-0.0075435201 0.3373031 1.1948563 65928
-0.0053871195 0.33723366 1.1946104 65928
-0.0032319922 0.33720455 1.1945071 65928
-0.0010772443 0.33717749 1.1944113 65928
0.0010773357 0.33720604 1.1945125 65928
0.0032322805 0.33723459 1.1946136 65927
0.0053882934 0.33730718 1.1948707 65927
0.0075455466 0.33739373 1.1951773 65927
0.0097047938 0.33751118 1.1955934 65926
0.011866588 0.33765838 1.1961148 65926
0.014031075 0.33782512 1.1967055 65925
0.016199788 0.33803558 1.197451 65924
0.01837188 0.33825871 1.1982415 65924
0.020550273 0.33853871 1.1992333 65923
0.022733008 0.33883008 1.2002654 65922
0.02492433 0.33918762 1.201532 65921
0.027121803 0.33956498 1.2028687 65920
0.029329887 0.34000942 1.2044431 65919
0.031547926 0.34050003 1.206181 65917
0.033778105 0.34104988 1.2081288 65916
0.036025994 0.34170109 1.2104356 65914
0.03829119 0.34243265 1.2130271 65912
0.040579937 0.34328434 1.2160441 118
0.04290494 0.34433964 1.2197824 115
0.045289323 0.34574533 1.2247618 112
0.047817916 0.34806997 1.2329966 2237042
-0.047457971 0.34765723 1.2237153 118
-0.045070253 0.34627146 1.2188375 121
-0.042739823 0.34520626 1.2150881 65916
-0.040448397 0.34435797 1.2121023 65918
-0.038180962 0.34362864 1.2095351 65919
-0.035931155 0.34297919 1.2072492 65920
-0.033698943 0.34242472 1.2052975 65922
-0.031479802 0.34193578 1.2035764 65923
-0.029270273 0.34148651 1.201995 65923
-0.027072387 0.34111208 1.200677 65924
-0.024880314 0.34075212 1.1994101 65925
-0.022697562 0.34046343 1.1983939 65925
-0.020518851 0.34018096 1.1973996 65926
-0.01834706 0.33996025 1.1966227 65926
-0.016178446 0.33974734 1.1958734 65926
-0.014014549 0.33958331 1.1952959 65927
-0.01185327 0.33943456 1.1947724 65927
-0.0096948603 0.33932012 1.1943696 65927
-0.007538497 0.33923236 1.1940607 65927
-0.0053835344 0.33916268 1.1938154 65927
-0.0032298418 0.33913341 1.1937124 65927
-0.0010765275 0.33910617 1.1936165 65927
0.0010766186 0.33913487 1.1937175 65927
0.0032301289 0.33916354 1.1938184 65926
0.0053847041 0.33923635 1.1940747 65926
0.0075405184 0.33932334 1.1943809 65926
0.0096983211 0.33944121 1.1947958 65925
0.011858669 0.33958915 1.1953166 65925
0.014021697 0.33975649 1.1959056 65924
0.016188953 0.339968 1.19665 65923
0.018359551 0.34019169 1.1974374 65923
0.020536473 0.34047309 1.1984279 65922
0.022717677 0.34076518 1.199456 65921
0.024907505 0.34112453 1.2007209 65920
0.027103418 0.34150305 1.2020533 65919
0.029309981 0.34194979 1.2036257 65918
0.031526368 0.34244159 1.2053568 65916
0.033754975 0.34299412 1.2073016 65915
0.036001123 0.34364706 1.2096 65913
0.038264472 0.34438026 1.2121807 65911
0.040551227 0.34523341 1.2151837 117
0.042874493 0.34629399 1.2189168 114
0.045255922 0.34769794 1.2238586 111
0.04777351 0.34996876 1.2318516 2237041
-0.047435984 0.34970248 1.2231483 117
-0.045050625 0.34831822 1.2183067 120
-0.042721715 0.34725088 1.2145734 65915
-0.040431704 0.34640136 1.2116021 65916
-0.038165666 0.34567189 1.2090507 65918
-0.0359171 0.34502184 1.206777 65919
-0.033685975 0.34446627 1.2048337 65920
-0.031467926 0.343977 1.2031224 65921
-0.029259371 0.34352669 1.2015474 65922
-0.027062416 0.34315145 1.2002349 65923
-0.024871247 0.34279066 1.1989729 65924
-0.022689397 0.34250185 1.1979628 65924
-0.02051154 0.34221885 1.196973 65925
-0.018340571 0.34199768 1.1961994 65925
-0.016172765 0.34178445 1.1954535 65925
-0.014009668 0.34162036 1.1948797 65926
-0.011849164 0.34147134 1.1943585 65926
-0.0096915159 0.34135672 1.1939576 65926
-0.0075359051 0.34126884 1.1936501 65926
-0.0053816894 0.3411991 1.1934062 65926
-0.0032287366 0.34116983 1.1933038 65926
-0.0010761596 0.34114259 1.1932086 65926
0.0010762506 0.34117144 1.1933094 65925
0.0032290248 0.34120029 1.1934104 65925
0.0053828619 0.34127343 1.1936662 65925
0.0075379377 0.3413609 1.1939721 65925
0.0096949888 0.34147906 1.1943854 65924
0.01185458 0.34162742 1.1949043 65924
0.014016837 0.34179518 1.1954911 65923
0.016183322 0.34200755 1.1962339 65922
0.018353125 0.34223181 1.1970183 65922
0.020529227 0.34251395 1.1980051 65921
0.022709569 0.34280637 1.1990279 65920
0.024898514 0.34316647 1.2002875 65919
0.027093519 0.34354582 1.2016143 65918
0.029299174 0.34399399 1.2031819 65917
0.031514548 0.34448659 1.2049048 65915
0.033742134 0.34504053 1.2068423 65914
0.035987068 0.34569395 1.2091278 65912
0.038249176 0.34642828 1.2116961 65910
0.040534507 0.34728214 1.2146827 116
0.042856328 0.34834501 1.2184004 113
0.045235012 0.34974387 1.2232931 110
0.047749072 0.35201061 1.2312214 2237040
-0.047418896 0.35178205 1.2227077 116
-0.045034736 0.35039222 1.217877 119
-0.042706743 0.34931925 1.2141477 65913
-0.040417563 0.34846494 1.2111783 65915
-0.038152456 0.34773239 1.2086321 65917
-0.035904754 0.34707931 1.2063621 65918
-0.033674419 0.34652063 1.2044203 65919
-0.031457193 0.34602913 1.2027121 65920
-0.02924942 0.34557649 1.2011387 65921
-0.027053222 0.34519911 1.1998271 65922
-0.024862804 0.34483626 1.198566 65923
-0.022681726 0.34454623 1.1975578 65923
-0.020504611 0.34426162 1.1965686 65924
-0.018334376 0.34403917 1.1957954 65924
-0.016167305 0.34382471 1.19505 65924
-0.014004949 0.34365991 1.1944772 65924
-0.011845178 0.34351018 1.1939567 65925
-0.0096882554 0.34339482 1.1935558 65925
-0.0075333696 0.34330639 1.1932485 65925
-0.0053798789 0.34323627 1.1930047 65925
0.0032279382 0.34323743 1.1930088 65924
0.0053810482 0.34331086 1.193264 65924
0.0075353975 0.34339884 1.1935698 65923
0.0096917162 0.34351751 1.1939822 65923
0.011850575 0.34366667 1.1945007 65922
0.014012092 0.34383518 1.1950864 65922
0.016177846 0.34404889 1.1958292 65921
0.018346898 0.34427413 1.1966121 65920
0.020522263 0.344558 1.1975987 65920
0.022701839 0.34485173 1.1986197 65919
0.024889993 0.34521338 1.1998767 65918
0.027084196 0.34559435 1.2012008 65917
0.029289121 0.34604552 1.202769 65915
0.031503666 0.34654033 1.2044889 65914
0.033730473 0.34709743 1.2064252 65912
0.035974506 0.34775358 1.2087058 65911
0.038235676 0.34849086 1.2112684 65909
0.040520109 0.34934905 1.2142513 115
0.04284098 0.35041726 1.2179641 112
0.045218594 0.35182273 1.2228491 108
0.047743235 0.35418817 1.2310709 2237039
-0.04741884 0.35398716 1.2227063 114
-0.045027863 0.35253522 1.2176912 118
-0.042695194 0.35141429 1.2138194 65912
-0.040403485 0.35052752 1.2107564 65914
-0.038139235 0.34979129 1.2082133 65916
-0.03589242 0.34913534 1.2059476 65917
-0.033662867 0.34857354 1.2040071 65918
-0.031446461 0.34807977 1.2023016 65919
-0.029239472 0.34762484 1.2007302 65920
-0.027044054 0.34724563 1.1994205 65921
-0.024854366 0.3468805 1.1981592 65921
-0.02267405 0.34658906 1.1971525 65922
-0.020497687 0.34630305 1.1961646 65922
-0.018328195 0.34607947 1.1953924 65923
-0.016161852 0.34586364 1.1946468 65923
-0.01400023 0.345698 1.1940747 65923
-0.011841194 0.34554756 1.1935551 65923
-0.0096849985 0.3454316 1.1931546 65924
0.0075328592 0.34543541 1.1931677 65922
0.0096884463 0.34555456 1.1935793 65922
0.011846572 0.34570453 1.1940973 65921
0.014007348 0.34587374 1.1946818 65921
0.016172374 0.3460888 1.1954246 65920
0.018340677 0.34631512 1.1962063 65919
0.020515298 0.34660056 1.1971923 65918
0.022694113 0.34689572 1.1982118 65917
0.024881501 0.34725919 1.1994673 65916
0.027074877 0.34764144 1.2007875 65915
0.029279053 0.34809542 1.2023556 65914
0.031492796 0.34859267 1.2040732 65913
0.033718817 0.34915289 1.2060083 65911
0.035961982 0.349812 1.2082849 65910
0.038222209 0.35055223 1.2108418 116
0.040509671 0.35144877 1.2139385 113
0.042835005 0.35256505 1.2177942 111
0.045218743 0.35402969 1.2228532 107
0.04776248 0.35655248 1.2315671 2237039
-0.047425643 0.35624379 1.2228817 113
-0.045028284 0.35473502 1.2177025 116
-0.042695504 0.35360637 1.2138282 119
-0.040403012 0.35270739 1.2107422 65912
-0.038135625 0.35193732 1.2080989 65914
-0.035886422 0.35125196 1.2057462 65916
-0.033655144 0.35066488 1.2037309 65917
-0.031437572 0.35014951 1.2019619 65918
-0.029229777 0.34967473 1.200332 65919
-0.02703489 0.34929079 1.1990141 65919
-0.024845935 0.34892336 1.1977528 65920
-0.02266638 0.34863052 1.1967475 65921
-0.020490769 0.34834307 1.1957608 65921
-0.018322021 0.34811839 1.1949896 65921
-0.0161564 0.34790114 1.1942438 65922
-0.013995515 0.34773472 1.1936725 65922
-0.011837211 0.34758353 1.1931536 65922
0.0096851783 0.3475903 1.1931767 65920
0.011842575 0.34774107 1.1936944 65920
0.014002608 0.34791097 1.1942775 65919
0.016166897 0.34812722 1.1950198 65919
0.018334458 0.3483547 1.1958008 65918
0.020508338 0.34864172 1.196786 65917
0.022686394 0.34893835 1.1978042 65916
0.024873029 0.34930384 1.1990589 65915
0.027066164 0.34969485 1.2004011 65914
0.029271122 0.35016936 1.2020299 65913
0.031486001 0.3506889 1.2038134 65911
0.033713631 0.35127428 1.2058228 65910
0.035959046 0.35196277 1.2081863 65908
0.03822219 0.3527362 1.2108412 114
0.040509604 0.3536379 1.2139364 112
0.042834897 0.3547608 1.2177911 109
0.045226239 0.35629451 1.2230558 105
0.047824547 0.3592402 1.2331675 4473975
-0.04744681 0.35860962 1.2234275 111
-0.04503642 0.356996 1.2179226 114
-0.042695817 0.35579845 1.213837 117
-0.040403288 0.35489374 1.2107505 65911
-0.038135849 0.35411862 1.208106 65913
-0.035886612 0.35342878 1.2057526 65914
-0.033655316 0.35283801 1.2037371 65915
-0.031437721 0.35231927 1.2019675 65916
-0.029229913 0.35184154 1.2003376 65917
-0.027034124 0.35144362 1.1989801 65918
-0.024844242 0.35105994 1.1976712 65919
-0.022664106 0.35075402 1.1966275 65919
-0.020488072 0.35045388 1.1956035 65920
-0.01831918 0.35021961 1.1948043 65920
-0.016153522 0.34999299 1.1940311 65920
-0.013992767 0.34981918 1.1934382 65921
0.011840308 0.34982729 1.1934658 65919
0.014000185 0.35000461 1.1940708 65918
0.016164491 0.35023063 1.1948419 65917
0.018332189 0.35046831 1.1956527 65917
0.020506451 0.35076824 1.196676 65916
0.022685049 0.35107815 1.1977333 65915
0.024872571 0.35146025 1.1990368 65914
0.027066214 0.35186079 1.2004033 65913
0.029271174 0.35233822 1.2020321 65911
0.031486046 0.35286084 1.2038151 65910
0.033713669 0.35344976 1.2058243 65908
0.035959069 0.35414234 1.208187 115
0.038222183 0.35492027 1.2108409 113
0.040509537 0.355827 1.2139344 110
0.042843357 0.35702798 1.2180316 107
0.045245014 0.35864949 1.2235636 103
-0.047488824 0.36113593 1.2245108 109
-0.045055032 0.35934135 1.2184259 113
-0.042708825 0.35809708 1.2142069 115
-0.040406477 0.35710588 1.2108461 117
-0.03813608 0.35629994 1.2081133 65911
-0.035886806 0.3556056 1.205759 65913
-0.033655491 0.35501114 1.2037433 65914
-0.03143787 0.35448909 1.2019732 65915
-0.029230049 0.35400838 1.2003433 65916
-0.027034242 0.35360789 1.1989853 65917
-0.024844348 0.35322183 1.1976763 65917
-0.022664199 0.35291395 1.1966324 65918
-0.020488156 0.35261196 1.1956084 65918
-0.018319262 0.3523764 1.1948097 65919
-0.016153593 0.35214832 1.1940364 65919
-0.013992819 0.35197321 1.1934426 65919
0.011840338 0.35198095 1.1934688 65917
0.014000214 0.35215923 1.1940733 65917
0.016164524 0.35238662 1.1948444 65916
0.018332219 0.35262564 1.1956547 65915
0.020506486 0.35292742 1.196678 65914
0.022685075 0.35323903 1.1977346 65913
0.024872625 0.35362387 1.1990395 65912
0.027066266 0.35402676 1.2004056 65911
0.029271226 0.35450709 1.2020342 65910
0.03148609 0.3550328 1.2038168 65909
0.033713713 0.3556253 1.2058258 65907
0.035959095 0.35632196 1.2081879 113
0.038225811 0.35713831 1.210956 111
0.040522512 0.35813141 1.2143233 109
0.042860731 0.35937074 1.2185255 106
0.045286048 0.36118385 1.2246733 102
-0.04755608 0.3638593 1.226245 107
-0.045084886 0.36177874 1.2192333 111
-0.042726539 0.36043671 1.2147105 114
-0.040423054 0.35943741 1.2113428 116
-0.038146943 0.35858127 1.2084575 65909
-0.035890866 0.35782108 1.2058955 65911
-0.033655666 0.35718432 1.2037497 65912
-0.031438019 0.35665891 1.2019789 65913
-0.029230189 0.35617524 1.200349 65914
-0.027034361 0.3557722 1.1989906 65915
-0.024844458 0.35538375 1.1976815 65916
-0.022664292 0.3550739 1.1966373 65916
-0.02048824 0.35477003 1.1956133 65917
-0.018319335 0.35453302 1.1948144 65917
-0.016153665 0.35430375 1.1940417 65918
-0.013992876 0.35412741 1.1934475 65918
0.011840367 0.35413462 1.1934718 65916
0.014000244 0.35431388 1.1940759 65915
0.016164558 0.35454264 1.1948469 65914
0.01833225 0.35478297 1.1956568 65914
0.020506518 0.35508657 1.1966799 65913
0.022685101 0.35539994 1.197736 65912
0.024872661 0.35578719 1.1990411 65911
0.027066316 0.35619274 1.2004079 65910
0.029271282 0.35667598 1.2020365 65908
0.031486135 0.35720477 1.2038186 65907
0.033718046 0.35784635 1.2059808 113
0.035969935 0.35860935 1.2085521 111
0.038241133 0.35946664 1.2114413 109
0.040538836 0.36046693 1.2148124 107
0.042890079 0.36181629 1.2193599 103
0.045350906 0.36391336 1.2264272 102
-0.047679387 0.3670204 1.2294246 2237039
-0.045127295 0.36432034 1.2203801 108
-0.0427543 0.36286342 1.2154998 111
-0.040439624 0.36177072 1.2118394 114
-0.038162358 0.36090687 1.2089458 116
-0.035905212 0.36014014 1.2063775 65909
-0.033667855 0.35948581 1.2041856 65911
-0.031445354 0.35891074 1.2022593 65912
-0.029233597 0.35838223 1.2004889 65913
-0.027034875 0.35794175 1.1990134 65913
-0.024844566 0.3575457 1.1976868 65914
-0.022664387 0.35723391 1.1966423 65915
-0.020488324 0.35692817 1.1956182 65915
-0.018319406 0.35668963 1.1948191 65916
-0.016153738 0.35645917 1.1940471 65916
-0.013992934 0.35628161 1.1934524 65916
0.011840397 0.35628831 1.1934748 65914
0.014000274 0.35646853 1.1940784 65914
0.016164593 0.35669869 1.1948495 65913
0.018332282 0.3569403 1.1956588 65912
0.020506553 0.35724574 1.196682 65911
0.022685129 0.35756084 1.1977375 65910
0.024873432 0.35796112 1.1990783 65909
0.027069828 0.35840452 1.2005635 65908
0.029278496 0.35893267 1.2023327 65907
0.031497944 0.35951102 1.20427 65905
0.033731278 0.360163 1.206454 112
0.035984207 0.36093253 1.2090317 110
0.038256507 0.36179724 1.2119284 107
0.040566169 0.36290276 1.2156315 105
0.042929601 0.36435124 1.2204835 102
0.045469623 0.36708403 1.2296377 4473975
-0.045196149 0.36708093 1.2222421 106
-0.042794041 0.36539528 1.2166296 109
-0.040469244 0.36422318 1.212727 112
-0.038177807 0.36323458 1.2094352 114
-0.035919569 0.36246112 1.2068599 115
-0.033681292 0.36180225 1.2046661 65909
-0.031457808 0.36122242 1.2027355 65910
-0.029245162 0.36069033 1.2009639 65911
-0.027045511 0.36024618 1.1994851 65912
-0.024852371 0.35981911 1.198063 65913
-0.022669787 0.35947806 1.1969274 65913
-0.020491716 0.35914427 1.195816 65914
-0.018321386 0.35888362 1.1949482 65914
-0.016154598 0.35863206 1.1941106 65915
-0.013993088 0.35843834 1.1934656 65915
0.011840594 0.35844707 1.1934947 65913
0.014001111 0.35864386 1.1941499 65912
0.01616646 0.35889539 1.1949874 65911
0.018335471 0.35915953 1.1958668 65911
0.020511642 0.35949352 1.1969789 65910
0.022692503 0.35983825 1.1981268 65909
0.02488311 0.36026418 1.1995449 65908
0.027080402 0.36071095 1.2010325 65906
0.029289931 0.36124247 1.2028023 65905
0.031510301 0.36182517 1.2047424 111
0.033744521 0.36248145 1.2069277 110
0.035998426 0.36325684 1.2095094 108
0.038285453 0.36425874 1.2128453 105
0.040603556 0.36543199 1.2167518 103
0.042996738 0.36712599 1.2223922 102
0.048760593 0.39603114 1.3186356 4473975
-0.045303822 0.37016538 1.2251539 2237039
-0.042849883 0.3680695 1.2182171 107
-0.040506206 0.36674538 1.2138346 109
-0.038210999 0.36573383 1.2104867 112
-0.035939388 0.36483923 1.2075257 113
-0.033694737 0.36412054 1.205147 115
-0.031470269 0.36353585 1.2032119 65908
-0.029256735 0.36300024 1.2014391 65909
-0.027056152 0.36255243 1.199957 65910
-0.02486214 0.36212248 1.198534 65911
-0.022678645 0.36177838 1.1973951 65911
-0.020499714 0.36144233 1.1962829 65912
-0.018328512 0.3611795 1.195413 65912
-0.016160877 0.36092627 1.1945748 65913
-0.013998514 0.36073095 1.1939284 65913
-0.011839094 0.36055422 1.1933434 65913
0.0096867587 0.36056268 1.1933714 65912
0.011845168 0.3607392 1.1939557 65911
0.014006524 0.36093736 1.1946115 65910
0.016172713 0.36119062 1.1954497 65910
0.018342577 0.36145666 1.1963303 65909
0.020519603 0.36179301 1.1974435 65908
0.022701338 0.36214039 1.1985933 65907
0.0248928 0.36256903 1.200012 65906
0.027090983 0.36301917 1.2015018 65905
0.029301383 0.36355418 1.2032726 111
0.031522669 0.36414117 1.2052153 110
0.033763725 0.36486605 1.2076145 108
0.036030438 0.36576355 1.210585 106
0.038320009 0.36677724 1.21394 103
0.040657818 0.36811808 1.2183779 102
0.043101057 0.37022704 1.225358 102
0.048542071 0.39662424 1.3127261 9013641
-0.048332378 0.39726856 1.3070554 4473975
-0.042921577 0.37088645 1.2202554 104
-0.040556483 0.36939281 1.2153412 107
-0.038245436 0.36824891 1.2115777 109
-0.035971433 0.36734462 1.2086024 111
-0.033720955 0.36657941 1.2060848 113
-0.031487186 0.36590281 1.2038587 114
-0.029268315 0.36531192 1.2019147 65907
-0.027066799 0.36486045 1.2004292 65908
-0.024871916 0.36442763 1.1990052 65909
-0.022687517 0.36408064 1.1978636 65910
-0.020507719 0.3637422 1.19675 65910
-0.018335644 0.36347717 1.1958781 65911
-0.01616716 0.36322221 1.1950393 65911
-0.014003945 0.36302534 1.1943915 65911
-0.011843683 0.36284739 1.1938061 65912
-0.0096866116 0.36270979 1.1933533 65912
-0.0075318529 0.36260492 1.1930083 65912
0.0053799674 0.3626098 1.1930244 65911
0.0075341347 0.36271477 1.1933697 65910
0.0096904971 0.36285529 1.193832 65910
0.011849743 0.36303306 1.1944169 65909
0.014011942 0.36323264 1.1950736 65909
0.016178973 0.36348757 1.1959124 65908
0.018349689 0.36375558 1.1967942 65907
0.02052757 0.36409426 1.1979084 65906
0.022710178 0.36444429 1.19906 65905
0.024902506 0.36487585 1.2004799 65904
0.027101574 0.36532921 1.2019715 111
0.029317647 0.36592767 1.2039405 109
0.031547695 0.366606 1.2061722 107
0.03379361 0.36736923 1.2086834 106
0.036062613 0.36827576 1.211666 103
0.038368654 0.36943531 1.215481 102
0.040725477 0.37093204 1.2204055 102
0.045968328 0.39721349 1.3068742 4473975
0.048325501 0.39721206 1.3068694 9013641
-0.04811763 0.39785066 1.301248 9013641
-0.043047834 0.37418503 1.2238449 106
-0.040622897 0.37219355 1.2173314 104
-0.038294818 0.37091267 1.213142 107
-0.036003526 0.36985442 1.2096808 109
-0.0337511 0.3690846 1.207163 111
-0.031515043 0.36839998 1.2049237 112
-0.029292047 0.36777791 1.2028892 113
-0.027083781 0.36725605 1.2011824 65906
-0.024883253 0.36675754 1.1995518 65907
-0.022696398 0.36638471 1.1983324 65908
-0.020515732 0.36604384 1.1972176 65908
-0.01834278 0.3657766 1.1963435 65909
-0.016173448 0.36551994 1.1955041 65909
-0.014009377 0.36532146 1.1948549 65909
-0.011848278 0.36514238 1.1942692 65910
-0.0096903602 0.36500356 1.1938151 65910
-0.007534767 0.364898 1.1934699 65910
-0.0053807297 0.36481348 1.1931934 65910
-0.0032281298 0.36477867 1.1930796 65910
0.0010760473 0.36478001 1.193084 65910
0.0032284514 0.36481503 1.1931984 65909
0.0053820433 0.36490253 1.1934847 65909
0.0075370427 0.36500823 1.1938304 65908
0.0096942382 0.36514965 1.1942929 65908
0.011854323 0.36532867 1.1948785 65907
0.014017364 0.36552972 1.195536 65907
0.016185237 0.36578634 1.1963754 65906
0.018356806 0.36605632 1.1972584 65905
0.020535538 0.36639723 1.1983734 65904
0.022720864 0.36677966 1.1996242 65903
0.024918504 0.36727709 1.2012511 110
0.027123969 0.36780104 1.2029648 109
0.029343423 0.36842296 1.204999 107
0.03157562 0.36910811 1.2072399 105
0.03382355 0.36987686 1.2097542 103
0.036109928 0.37094745 1.2132558 102
0.038430534 0.37222716 1.2174413 102
0.040844556 0.37422445 1.2239739 102
0.045764152 0.39779609 1.3010695 9013641
0.04811085 0.3977946 1.3010646 9013641
-0.047904786 0.39842761 1.2954919 9013641
-0.045567814 0.39842629 1.2954876 6776704
-0.040725473 0.37533477 1.2204053 102
-0.038356625 0.37370309 1.2150999 104
-0.036054231 0.37256038 1.2113844 106
-0.033782359 0.37160596 1.208281 108
-0.031542994 0.37090209 1.2059925 110
-0.029317923 0.37027451 1.2039518 111
-0.027107544 0.36974689 1.2022363 112
-0.024905058 0.36924455 1.2006029 65905
-0.022714514 0.36884046 1.199289 65906
-0.020529367 0.36844811 1.1980133 65906
-0.018353015 0.36813989 1.1970111 65907
-0.016180849 0.36784461 1.196051 65907
-0.014014813 0.36761934 1.1953185 65908
-0.011852875 0.36743912 1.1947325 65908
-0.0096941125 0.36729914 1.1942774 65908
-0.0075376835 0.36719286 1.1939318 65908
-0.0053828084 0.36710754 1.1936544 65908
-0.0032293769 0.36707249 1.1935405 65908
-0.0010763595 0.36703858 1.1934302 65908
0.0010764627 0.36707377 1.1935446 65908
0.0032296977 0.36710897 1.1936591 65907
0.0053841202 0.36719701 1.1939453 65907
0.0075399526 0.3673034 1.1942912 65907
0.009697983 0.3674458 1.1947542 65906
0.011858903 0.36762598 1.1953402 65906
0.014023899 0.36785766 1.1960934 65905
0.016194422 0.36815315 1.1970543 65904
0.018369198 0.3684645 1.1980666 65903
0.020552175 0.36885747 1.1993443 110
0.02274066 0.36926499 1.2006694 109
0.024940249 0.36976629 1.2022994 108
0.027147751 0.37029535 1.2040195 106
0.029369224 0.37092242 1.2060585 105
0.031605683 0.37163925 1.2083893 103
0.033871975 0.3725917 1.2114862 102
0.036167555 0.3737314 1.215192 102
0.038528662 0.37537923 1.2205499 102
0.043225408 0.39837471 1.2953199 4473975
0.045561761 0.39837334 1.2953155 9013641
0.047898099 0.39837199 1.2953111 9013641
-0.047693875 0.39899996 1.2897882 9013641
-0.045367151 0.39899826 1.2897828 9013641
-0.040903751 0.37918884 1.2257477 2237039
-0.038448133 0.37679169 1.2179989 102
-0.036111839 0.37534425 1.2133199 104
-0.033836052 0.37437952 1.2102014 105
-0.031580441 0.37352037 1.2074242 107
-0.029343855 0.37277564 1.2050167 109
-0.027131364 0.3722423 1.2032927 110
-0.024926897 0.3717359 1.2016557 111
-0.02273434 0.37132755 1.2003357 111
-0.020547271 0.37093231 1.1990581 65904
-0.018368961 0.37062079 1.1980511 65905
-0.016194895 0.37032327 1.1970893 65905
-0.014026819 0.37009221 1.1963425 65906
-0.01186219 0.36988464 1.1956714 65906
-0.0097011924 0.36972323 1.1951497 65906
-0.0075428807 0.36960116 1.1947551 65906
-0.0053863395 0.36950287 1.1944374 65906
-0.0032314523 0.36946273 1.1943076 65906
-0.0010770374 0.36942381 1.1941818 65906
0.0010771558 0.36946446 1.1943132 65906
0.0032318223 0.36950502 1.1944443 65905
0.005387851 0.36960658 1.1947726 65905
0.0075454963 0.36972931 1.1951693 65905
0.0097056618 0.36989358 1.1957003 65904
0.011869142 0.37010142 1.1963722 65903
0.014036035 0.3703354 1.1971285 65903
0.016208448 0.37063316 1.198091 110
0.01838515 0.37094742 1.1991069 109
0.020570036 0.37134326 1.2003865 108
0.022760492 0.37175471 1.2017165 107
0.024962028 0.37225983 1.2033494 106
0.02717158 0.37279409 1.2050763 104
0.029404627 0.37354767 1.2075124 102
0.031655546 0.37440869 1.2102957 102
0.033925593 0.37537029 1.2134041 102
0.036254995 0.37683222 1.2181299 102
0.038698319 0.37924352 1.2259245 4473975
0.043035068 0.3989467 1.2896161 9013641
0.045361131 0.39894536 1.2896117 9013641
0.04768718 0.39894399 1.2896073 9013641
-0.047484752 0.39956683 1.284133 9013641
-0.045168255 0.39956534 1.2841282 9013641
-0.04285178 0.39956388 1.2841235 6776704
-0.038586866 0.38035622 1.2223938 103
-0.036198542 0.37843928 1.216233 102
-0.033889979 0.37716267 1.2121302 103
-0.03163027 0.37629113 1.2093292 104
-0.029387541 0.37550747 1.2068107 106
-0.02716261 0.37484401 1.2046785 107
-0.024948779 0.3742317 1.2027106 108
-0.0227542 0.37381899 1.2013843 109
-0.020565202 0.37342077 1.2001045 110
-0.018384933 0.373106 1.1990929 110
-0.016208965 0.37280622 1.1981294 111
-0.014038973 0.37257275 1.1973791 65903
-0.011872467 0.37236375 1.1967074 65904
-0.0097095817 0.37220064 1.1961832 65904
-0.0075494023 0.37207767 1.195788 65904
-0.0053909901 0.37197831 1.1954687 65904
-0.0032342405 0.37193766 1.195338 65904
-0.0010779663 0.37189838 1.1952118 65904
0.0010780852 0.37193939 1.1953436 65904
0.0032346111 0.37198028 1.195475 65903
0.0053925021 0.37208265 1.195804 65903
0.0075520137 0.37220639 1.1962017 65902
0.009714053 0.37237206 1.1967341 110
0.011879402 0.37258124 1.1974064 109
0.014048193 0.37281743 1.1981654 109
0.016222497 0.37311742 1.1991296 108
0.018401127 0.37343463 1.2001491 107
0.02058793 0.37383348 1.2014308 106
0.022780359 0.37424877 1.2027655 105
0.024991248 0.37486872 1.2047579 103
0.027212493 0.37553239 1.2068908 102
0.029450683 0.37631428 1.2094036 102
0.031705525 0.37718639 1.2122065 102
0.034007926 0.37847531 1.2163488 102
0.036388233 0.38042244 1.2226065 102
0.040530518 0.39951512 1.2839668 9013641
0.042846404 0.39951378 1.2839625 9013641
0.045162272 0.39951241 1.2839581 9013641
0.047478128 0.39951107 1.2839538 9013641
-0.047277492 0.40012902 1.278528 9013641
-0.044971112 0.40012759 1.2785234 9013641
-0.042664751 0.40012616 1.2785189 9013641
-0.040358409 0.40012479 1.2785145 6776704
-0.036319163 0.38190147 1.2202858 102
-0.033979043 0.38034609 1.2153158 102
-0.031685039 0.37912786 1.2114233 102
-0.029433953 0.37828079 1.2087166 103
-0.027205205 0.37760824 1.2065676 105
-0.024986876 0.37697592 1.2045472 106
-0.022783015 0.37646219 1.2029057 107
-0.02058628 0.37597048 1.2013345 108
-0.018400935 0.37559557 1.2001365 108
-0.016223062 0.37529349 1.1991713 109
-0.014051146 0.37505752 1.1984173 109
-0.011882762 0.37484714 1.1977451 109
-0.009717986 0.37468234 1.1972185 110
-0.0075559351 0.37455848 1.1968228 110
-0.0053956481 0.37445799 1.1965016 110
-0.003237034 0.37441695 1.1963705 110
-0.0010788967 0.37437716 1.1962434 110
0.0010790159 0.3744185 1.1963755 109
0.0032374046 0.3744598 1.1965075 109
0.005397161 0.37456295 1.1968371 109
0.0075585418 0.37468773 1.1972357 108
0.0097224591 0.37485483 1.1977696 108
0.011889686 0.37506554 1.1984429 107
0.014060371 0.37530375 1.1992041 106
0.016236573 0.37560606 1.20017 105
0.018420255 0.37598991 1.2013966 104
0.020614352 0.37648317 1.2029727 103
0.02281549 0.37699884 1.2046204 102
0.025030218 0.37762982 1.2066365 102
0.027255194 0.3783021 1.2087847 102
0.029502688 0.37916416 1.2115393 102
0.031789541 0.38037831 1.2154188 102
0.03412335 0.38196138 1.2204771 102
