# .PCD v0.7 - Point Cloud Data file format
VERSION 0.7
FIELDS x y z rgb
SIZE 4 4 4 4
TYPE F F F U
COUNT 1 1 1 1
WIDTH 179
HEIGHT 1
VIEWPOINT 0 0 0 1 0 0 0
POINTS 179
DATA ascii
-0.021271029 0.32916018 1.1992174 65931
-0.015133571 0.32860392 1.1985042 65932
-0.0054041296 0.32861829 1.1985567 65931
0.0021634572 0.32988966 1.1992468 65929
-0.032089684 0.33784044 1.1993146 65926
-0.0244764 0.33553043 1.1971937 65928
-0.015093466 0.33527777 1.1953299 65929
-0.0053898646 0.33529335 1.1953853 65928
0.0050267796 0.3358911 1.1975158 65925
0.011898552 0.33856788 1.1993366 65923
-0.033643149 0.34527689 1.1980964 65922
-0.024690693 0.34518138 1.1944679 65923
-0.015058065 0.34524834 1.1925263 65923
-0.0053772419 0.34526598 1.1925871 65922
0.0052980003 0.34510845 1.1949587 65920
0.013511828 0.34533966 1.19844 65918
-0.034329996 0.35491559 1.1977234 65915
-0.025060648 0.35482812 1.1938307 65917
-0.01504908 0.35471761 1.1918141 65917
-0.0053740148 0.35473618 1.1918764 65916
0.0056693316 0.35475829 1.1943119 65914
0.013892345 0.35514575 1.1979202 65911
-0.033313315 0.36447108 1.1984997 65908
-0.024497235 0.36478016 1.1950032 65909
-0.015065836 0.36479801 1.1931367 65909
-0.0053799073 0.36481848 1.1932036 65909
0.0051884027 0.36469218 1.19548 65907
0.013246184 0.36438763 1.1988724 113
-0.031378135 0.37112761 1.1996894 112
-0.02454414 0.37354711 1.1980274 110
-0.015115784 0.3757228 1.1970842 108
-0.0056246803 0.37552738 1.1970056 107
0.0044065104 0.37331805 1.1981679 108
-0.02351469 0.31844753 1.2086014 65934
-0.014952523 0.3171697 1.2077297 65935
-0.0057575577 0.31714711 1.2078053 65934
0.0036347776 0.31869683 1.2087587 65932
-0.034053154 0.32667997 1.206807 65930
-0.025156206 0.32446614 1.2038883 65933
-0.015181409 0.32313356 1.202291 65934
-0.0054211658 0.32314712 1.2023416 65933
0.0054330425 0.32472533 1.2041799 65930
0.014338185 0.32701612 1.2072805 65926
-0.041732933 0.33566424 1.2070583 65925
-0.035156775 0.33451152 1.2026037 65927
-0.028516011 0.33100095 1.2006633 65930
0.0081243571 0.33090475 1.2009685 65927
0.01552244 0.33480316 1.2033143 65923
0.021911047 0.33567408 1.2079599 65919
-0.043483157 0.34510729 1.205186 65919
-0.037466336 0.34369192 1.2006121 65922
0.017603396 0.34474677 1.2010813 65917
0.023570465 0.34516084 1.2059973 65913
-0.044473566 0.35483944 1.2051818 65913
0.018409476 0.35519469 1.2006935 65910
0.023675362 0.3549386 1.2051377 115
-0.04328442 0.36472836 1.205719 114
-0.037190285 0.36540422 1.201027 115
0.016978627 0.3656908 1.201574 110
0.023184668 0.36446258 1.2062804 108
-0.041158438 0.37303427 1.207257 107
-0.034898195 0.37501734 1.2037346 107
-0.02621373 0.37802008 1.2009618 106
-0.0010823432 0.37990245 1.2000647 103
0.0083074672 0.37670481 1.2013696 104
0.015139929 0.37509164 1.2045363 103
0.021249138 0.37321791 1.2082037 102
-0.03321775 0.38227525 1.2075582 102
-0.024559824 0.38418233 1.2048774 102
-0.015195367 0.38529262 1.2033681 102
-0.0054255747 0.3853204 1.2034551 102
0.0047579492 0.38415024 1.2053152 102
0.01416833 0.38178697 1.2083136 102
-0.014297462 0.3090381 1.2193977 65935
-0.0065981541 0.30904314 1.2194176 65934
-0.034260422 0.3175942 1.2166047 65932
-0.025404708 0.31450322 1.2146399 65934
-0.015581577 0.31239039 1.214029 65935
-0.0052013062 0.31235397 1.214132 65934
0.0056864563 0.31493199 1.2146829 65931
0.0145463 0.31805307 1.217075 65927
-0.042751033 0.32617047 1.2153441 65927
-0.036076985 0.32249546 1.212115 65931
0.016010337 0.32265127 1.2126998 65926
0.022662526 0.32657072 1.215763 65922
-0.051644724 0.33733734 1.218338 65919
-0.047080431 0.33420628 1.2138946 65923
0.026834672 0.33483407 1.2142479 65916
0.031876959 0.33965448 1.218761 119
-0.052527439 0.34500912 1.2161206 123
-0.049164288 0.34414759 1.2113702 65918
0.028895544 0.34407899 1.2122246 119
0.032460876 0.34607798 1.2170569 115
-0.052724179 0.35444534 1.2150383 117
-0.049117956 0.35910684 1.2102287 116
0.029502768 0.35512641 1.2115425 112
0.033053204 0.35502726 1.2170328 109
-0.052283544 0.36341631 1.2161258 110
-0.048746504 0.36570564 1.2118365 110
0.028598782 0.36582944 1.2128671 104
0.031837147 0.3644833 1.2172389 103
-0.051661063 0.37042081 1.2187234 105
-0.045628086 0.3755739 1.2140644 103
0.025388746 0.37480059 1.2141379 102
-0.042251468 0.38299137 1.2167561 102
-0.035834387 0.38569075 1.2131577 102
-0.027283281 0.38851389 1.2100303 102
0.015325421 0.38585311 1.2136697 102
0.021928847 0.38155591 1.2156792 102
-0.031868033 0.39230648 1.2184198 102
-0.024887402 0.39302883 1.2148247 102
-0.015989091 0.39493066 1.2143199 102
-0.0047472264 0.39511847 1.2146741 102
0.0054804482 0.39244995 1.2147824 102
-0.02409656 0.30857149 1.2254182 65933
-0.015823653 0.30727905 1.2240832 65934
-0.0051191486 0.30724362 1.2242078 65933
0.0033184343 0.30843386 1.2257504 65931
-0.041812848 0.31790334 1.2264556 65928
-0.035332423 0.31412718 1.2242483 65930
-0.028679885 0.31105846 1.2230232 65933
0.007722937 0.31105554 1.2230116 65930
0.015459745 0.31470266 1.2243361 65926
0.021744644 0.31878892 1.225883 65922
-0.052077878 0.32908785 1.2285564 65920
-0.046452478 0.32413048 1.2240112 65925
0.026411597 0.32513973 1.2239659 126
-0.053911284 0.33536464 1.2254004 125
0.029744608 0.3315973 1.2214738 65915
0.032860965 0.33549774 1.2246684 118
-0.056303434 0.34521979 1.2240158 119
0.035501014 0.34410086 1.2245291 112
-0.057467312 0.35472608 1.2252687 526450
0.036440242 0.35446465 1.224354 105
-0.055383861 0.36517206 1.2232367 394860
0.035107806 0.36408007 1.2240188 394856
-0.052683543 0.37467182 1.2254368 1447532
-0.049621537 0.3782264 1.2226366 2237039
0.029747633 0.37570158 1.221598 102
0.032777529 0.37232289 1.2249836 2960753
-0.044312067 0.38773522 1.2283053 4473975
0.018726368 0.3888475 1.2213616 2237039
0.025380522 0.38280487 1.2231944 1315947
-0.035333976 0.39313471 1.2244105 2237038
0.014344566 0.39267817 1.2230079 2237039
-0.031538349 0.30907455 1.2341881 65929
-0.024654357 0.30651784 1.2345698 65930
-0.014958973 0.30473167 1.2336329 65931
0.0052860249 0.30704015 1.2345974 65927
0.011154143 0.3089329 1.2365854 65925
-0.043919381 0.31723863 1.2359287 132
-0.037171341 0.31228787 1.2339876 65928
0.016062813 0.31215629 1.2342184 131
0.022915844 0.31747225 1.2333696 127
-0.051600169 0.32630488 1.2348033 127
-0.048622686 0.32255149 1.2346711 789634
0.027047122 0.32195696 1.2323669 125
0.031160828 0.3271938 1.2339635 120
-0.055656951 0.3339375 1.2341976 1118588
0.035610415 0.33606413 1.2338272 526452
-0.059004046 0.34511149 1.2343707 2237049
0.038250346 0.34571943 1.2351719 2237043
0.038963079 0.35400796 1.2343118 3355507
-0.057767555 0.36548957 1.231741 2237040
0.036795389 0.36906889 1.2362865 4473975
-0.031442791 0.30878282 1.2449734 987011
-0.024656245 0.30594674 1.2425756 1052805
-0.0044893548 0.30444545 1.2456037 1513348
0.0044869971 0.30614686 1.2433884 987011
0.010088724 0.30826655 1.242892 132
-0.04142502 0.31460625 1.2413684 133
-0.036986686 0.31156707 1.2426387 1052804
0.016863832 0.31244335 1.2461271 1973886
0.023536794 0.31719515 1.2427415 1908091
-0.050425462 0.32384351 1.2424446 4473987
0.028030474 0.32178983 1.2431688 4473984
0.032477777 0.32813755 1.2417324 2237049
0.034678213 0.33223966 1.2403227 2237047
-0.02828875 0.30891314 1.2546235 3947645
