# .PCD v0.7 - Point Cloud Data file format
VERSION 0.7
FIELDS x y z rgb
SIZE 4 4 4 4
TYPE F F F U
COUNT 1 1 1 1
WIDTH 1176
HEIGHT 1
VIEWPOINT 0 0 0 1 0 0 0
POINTS 1176
DATA ascii
0.095907815 0.40841642 1.1948233 9013641
0.098062731 0.40841514 1.1948195 9013641
0.099429242 0.4052009 1.1854162 7479842
0.099471524 0.39683902 1.1609535 6946816
0.0995121 0.38881531 1.1374801 6946816
0.099551059 0.3811096 1.1149371 6946816
0.099588506 0.37370339 1.0932702 7471104
0.1014647 0.37335071 1.0922384 7995649
0.10343532 0.37335223 1.0922428 7995649
0.10540593 0.37335372 1.0922472 7995649
0.10737658 0.37335527 1.0922518 7995649
0.10934724 0.37335679 1.0922562 7995649
0.11131791 0.37335828 1.0922606 7995649
0.1132886 0.37335983 1.0922651 7995649
0.11525931 0.37336135 1.0922695 7995649
0.11723003 0.37336287 1.092274 7995649
0.11920076 0.37336436 1.0922784 7995649
0.12117153 0.37336591 1.0922829 7995649
0.12314229 0.37336743 1.0922873 7995649
0.12511307 0.37336892 1.0922917 7995649
0.12708388 0.37337047 1.0922962 7995649
0.1290547 0.37337199 1.0923007 7995649
0.13102552 0.37337348 1.0923051 7995649
0.13299637 0.373375 1.0923095 7995649
0.13496725 0.37337655 1.092314 7995649
0.13693812 0.37337807 1.0923184 7995649
0.13890903 0.37337956 1.0923228 7995649
0.14087993 0.37338108 1.0923272 7995649
0.14285088 0.37338263 1.0923318 7995649
0.14482181 0.37338412 1.0923362 7995649
0.14679277 0.37338564 1.0923406 7995649
0.14876376 0.37338719 1.0923451 7995649
0.15073475 0.37338868 1.0923495 7995649
0.15270576 0.3733902 1.0923539 7995649
0.1546768 0.37339175 1.0923585 7995649
0.15664783 0.37339327 1.0923629 7995649
0.15861888 0.37339476 1.0923673 7995649
0.16058996 0.37339631 1.0923718 7995649
0.16256106 0.37339783 1.0923762 7995649
0.16453217 0.37339938 1.0923808 7995649
0.1665033 0.37340087 1.0923852 7995649
0.16847445 0.37340242 1.0923897 7995649
0.17044559 0.37340394 1.0923941 7995649
0.17241676 0.37340543 1.0923985 7995649
0.17438796 0.37340698 1.0924031 7995649
0.17635916 0.3734085 1.0924075 7995649
0.17833039 0.37341005 1.092412 7995649
0.18030162 0.37341157 1.0924164 7995649
0.18227288 0.37341309 1.0924209 7995649
0.18424414 0.37341461 1.0924253 7995649
0.18621545 0.37341616 1.0924299 7995649
0.18818673 0.37341768 1.0924343 7995649
0.19015805 0.37341917 1.0924387 7995649
0.19212939 0.37342072 1.0924432 7995649
0.19410074 0.37342224 1.0924476 7995649
0.19607212 0.37342378 1.0924522 7995649
0.1980435 0.37342528 1.0924566 7995649
-0.18574852 0.40907621 1.1904713 9013641
-0.18360059 0.40907499 1.1904677 9013641
-0.18145266 0.40907377 1.1904641 9013641
-0.17930475 0.40907252 1.1904606 9013641
-0.17715688 0.40907133 1.1904571 9013641
-0.175009 0.4090701 1.1904535 9013641
-0.17286113 0.40906888 1.19045 9013641
-0.17071328 0.40906766 1.1904464 9013641
-0.16856545 0.40906647 1.1904429 9013641
-0.16641761 0.40906525 1.1904393 9013641
-0.1642698 0.40906399 1.1904358 9013641
-0.16212213 0.4090631 1.1904331 9013641
-0.15997419 0.40906152 1.1904285 9013641
-0.15782613 0.40905955 1.1904228 9013641
-0.15567811 0.40905765 1.1904173 9013641
-0.15353066 0.4090572 1.190416 9013641
-0.15138303 0.40905628 1.1904132 9013641
-0.14923479 0.40905365 1.1904056 9013641
-0.14708678 0.40905157 1.1903995 9013641
-0.14493968 0.40905195 1.1904007 9013641
-0.14279257 0.4090524 1.190402 9013641
-0.1406444 0.40904975 1.1903943 9013641
-0.13849607 0.40904656 1.190385 9013641
-0.13634811 0.40904436 1.1903785 9013641
-0.13420059 0.4090434 1.1903758 9013641
-0.13205315 0.40904272 1.1903738 9013641
-0.12990557 0.40904152 1.1903703 9013641
-0.12775783 0.4090398 1.1903653 9013641
-0.12561011 0.40903807 1.1903603 9013641
-0.12346234 0.4090361 1.1903546 9013641
-0.12131456 0.40903407 1.1903486 9013641
-0.11916722 0.40903345 1.1903468 9013641
-0.11702007 0.40903345 1.1903468 9013641
-0.11487234 0.40903139 1.1903409 9013641
-0.11272436 0.40902838 1.1903321 9013641
-0.11057755 0.4090296 1.1903356 9013641
-0.10843024 0.40902895 1.1903337 9013641
-0.10628198 0.4090246 1.1903211 9013641
-0.10413471 0.40902394 1.1903192 9013641
-0.1019878 0.40902478 1.1903216 9013641
-0.099840261 0.40902302 1.1903164 9013641
-0.097692698 0.40902108 1.1903108 9013641
-0.095545098 0.4090189 1.1903045 9013641
-0.093398273 0.40902001 1.1903077 9013641
-0.091250271 0.40901592 1.1902958 9013641
-0.089102753 0.40901384 1.1902897 9013641
-0.086955436 0.40901259 1.1902862 9013641
-0.084808134 0.40901136 1.1902826 9013641
-0.082660832 0.40901011 1.1902789 9013641
-0.080513559 0.40900886 1.1902753 9013641
-0.078366295 0.40900764 1.1902717 9013641
-0.076219536 0.40900907 1.1902759 9013641
-0.07407213 0.40900698 1.1902698 9013641
-0.071924835 0.40900537 1.1902652 9013641
-0.069777593 0.40900403 1.1902612 9013641
-0.067630365 0.40900269 1.1902573 9013641
-0.06548316 0.40900138 1.1902535 9013641
-0.063335963 0.40900001 1.1902496 9013641
-0.061188776 0.40899867 1.1902456 9013641
-0.059041612 0.40899736 1.1902418 9013641
-0.056894459 0.40899602 1.1902379 9013641
-0.054747321 0.4089947 1.1902341 9013641
-0.052600194 0.40899333 1.1902301 9013641
-0.050453082 0.40899199 1.1902262 9013641
-0.048305985 0.40899068 1.1902224 9013641
-0.046158902 0.40898934 1.1902184 9013641
-0.044011831 0.40898797 1.1902145 9013641
-0.041864779 0.40898666 1.1902107 9013641
-0.039717738 0.40898535 1.1902069 9013641
-0.037570715 0.40898409 1.1902032 9013641
-0.035423707 0.40898281 1.1901995 9013641
-0.033276714 0.40898156 1.1901958 9013641
-0.031129733 0.40898028 1.1901921 9013641
-0.028982764 0.408979 1.1901884 9013641
-0.02683581 0.40897775 1.1901847 9013641
-0.024688868 0.40897647 1.190181 9013641
-0.022541873 0.40897396 1.1901737 9013641
-0.020394962 0.40897265 1.1901699 9013641
-0.018248066 0.4089714 1.1901662 9013641
-0.016101185 0.40897012 1.1901625 9013641
-0.013954316 0.40896881 1.1901587 9013641
-0.011807461 0.40896752 1.190155 9013641
-0.0096606202 0.40896627 1.1901513 9013641
-0.0075137918 0.40896496 1.1901475 9013641
-0.0053669773 0.40896368 1.1901438 9013641
-0.0032201766 0.40896243 1.1901401 9013641
-0.0010733887 0.40896112 1.1901363 9013641
0.0010733854 0.40895984 1.1901326 9013641
0.0032201463 0.40895855 1.1901289 9013641
0.005366893 0.40895724 1.1901251 9013641
0.0075136269 0.40895599 1.1901214 9013641
0.0096603474 0.40895471 1.1901177 9013641
0.011807053 0.4089534 1.1901139 9013641
0.013953747 0.40895215 1.1901102 9013641
0.016100427 0.40895087 1.1901065 9013641
0.018247092 0.40894955 1.1901027 9013641
0.020393746 0.40894827 1.190099 9013641
0.022540387 0.40894702 1.1900953 9013641
0.024687011 0.40894571 1.1900915 9013641
0.026833624 0.40894443 1.1900878 9013641
0.028980223 0.40894318 1.1900841 9013641
0.031126808 0.40894186 1.1900803 9013641
0.03327338 0.40894058 1.1900766 9013641
0.035419941 0.4089393 1.1900729 9013641
0.037566483 0.40893799 1.1900691 9013641
0.039713122 0.40893784 1.1900686 9013641
0.041859481 0.40893492 1.1900601 9013641
0.044005997 0.40893379 1.1900568 9013641
0.046152499 0.4089326 1.1900533 9013641
0.048298988 0.40893146 1.19005 9013641
0.050445464 0.40893027 1.1900465 9013641
0.052591927 0.40892908 1.1900431 9013641
0.054738384 0.40892792 1.1900398 9013641
0.056884822 0.40892673 1.1900363 9013641
0.059031252 0.40892559 1.190033 9013641
0.061177667 0.4089244 1.1900295 9013641
0.063324057 0.40892312 1.1900258 9013641
0.06547042 0.40892181 1.190022 9013641
0.067616783 0.40892056 1.1900183 9013641
0.069763124 0.40891925 1.1900145 9013641
0.071909457 0.40891796 1.1900108 9013641
0.074055776 0.40891665 1.190007 9013641
0.07620208 0.4089154 1.1900033 9013641
0.078348368 0.40891409 1.1899995 9013641
0.080494642 0.40891278 1.1899956 9013641
0.082640909 0.4089115 1.189992 9013641
0.084787153 0.40891019 1.1899881 9013641
0.086933389 0.40890893 1.1899844 9013641
0.089079611 0.40890762 1.1899806 9013641
0.091225825 0.40890634 1.1899769 9013641
0.093372017 0.40890503 1.1899731 9013641
0.095518202 0.40890375 1.1899694 9013641
0.097664364 0.40890244 1.1899656 9013641
0.099431366 0.40734786 1.1854415 7479842
0.099473596 0.39894149 1.1609777 6946816
0.099514134 0.3908751 1.1375034 6946816
0.099553049 0.3831284 1.1149594 6946816
0.099590458 0.3756828 1.0932916 7471104
0.10148373 0.37539127 1.0924432 7995649
0.10345471 0.37539279 1.0924476 7995649
0.1054257 0.37539431 1.092452 7995649
0.10739671 0.37539586 1.0924566 7995649
0.10936774 0.37539738 1.092461 7995649
0.11133878 0.3753989 1.0924654 7995649
0.11330984 0.37540042 1.0924698 7995649
0.11528092 0.37540197 1.0924743 7995649
0.11725201 0.37540349 1.0924788 7995649
0.11922311 0.37540501 1.0924832 7995649
0.12119424 0.37540656 1.0924877 7995649
0.12316538 0.37540808 1.0924921 7995649
0.12513652 0.3754096 1.0924965 7995649
0.12710771 0.37541115 1.092501 7995649
0.12907889 0.37541267 1.0925055 7995649
0.13105009 0.37541416 1.0925099 7995649
0.13302131 0.37541568 1.0925143 7995649
0.13499255 0.37541726 1.0925188 7995649
0.1369638 0.37541875 1.0925232 7995649
0.13893506 0.37542027 1.0925276 7995649
0.14090636 0.37542182 1.0925322 7995649
0.14287765 0.37542334 1.0925366 7995649
0.14484896 0.37542486 1.092541 7995649
0.14682031 0.37542641 1.0925455 7995649
0.14879166 0.37542793 1.0925499 7995649
0.15076301 0.37542945 1.0925543 7995649
0.15273438 0.37543097 1.0925587 7995649
0.15470579 0.37543252 1.0925633 7995649
0.1566772 0.37543404 1.0925677 7995649
0.15864863 0.37543556 1.0925721 7995649
0.16062008 0.37543711 1.0925766 7995649
0.16259153 0.37543863 1.092581 7995649
0.16456302 0.37544018 1.0925856 7995649
0.16653451 0.3754417 1.09259 7995649
0.16850603 0.37544325 1.0925945 7995649
0.17047755 0.37544477 1.0925989 7995649
0.1724491 0.37544632 1.0926034 7995649
0.17442065 0.37544784 1.0926079 7995649
0.17639224 0.37544942 1.0926124 7995649
0.17836383 0.37545091 1.0926168 7995649
0.18033545 0.37545249 1.0926213 7995649
0.18230705 0.37545398 1.0926257 7995649
0.18427868 0.3754555 1.0926301 7995649
0.18625036 0.37545708 1.0926347 7995649
0.18822202 0.37545857 1.0926391 7995649
0.19019371 0.37546015 1.0926436 7995649
0.19216542 0.37546164 1.092648 7995649
0.19413714 0.37546322 1.0926526 7995649
0.19610888 0.37546474 1.092657 7995649
0.19808064 0.37546629 1.0926615 7995649
-0.18713593 0.40956035 1.1856563 6316128
-0.18499668 0.40955913 1.1856527 9013641
-0.18285744 0.40955788 1.1856492 9013641
-0.18071823 0.40955669 1.1856457 9013641
-0.17857902 0.40955546 1.1856421 9013641
-0.17643982 0.40955427 1.1856387 9013641
-0.17430066 0.40955308 1.1856352 9013641
-0.17216147 0.40955183 1.1856316 9013641
-0.17002232 0.40955064 1.1856282 9013641
-0.16788317 0.40954942 1.1856246 9013641
-0.16574404 0.40954816 1.185621 9013641
-0.163605 0.40954718 1.1856182 9013641
-0.16146581 0.40954575 1.185614 9013641
-0.15932646 0.40954384 1.1856085 9013641
-0.15718709 0.40954188 1.1856028 9013641
-0.15504833 0.40954146 1.1856016 9013641
-0.15290935 0.40954041 1.1855986 9013641
-0.1507698 0.40953782 1.1855911 9013641
-0.14863059 0.40953606 1.185586 9013641
-0.14649215 0.40953648 1.1855872 9013641
-0.14435369 0.40953678 1.185588 9013641
-0.14221409 0.4095338 1.1855794 9013641
-0.14007443 0.40953058 1.1855701 9013641
-0.13793522 0.40952861 1.1855644 9013641
-0.13579628 0.40952736 1.1855608 9013641
-0.13365753 0.40952668 1.1855588 9013641
-0.13151874 0.40952581 1.1855563 9013641
-0.12937978 0.40952441 1.1855522 9013641
-0.12724073 0.40952268 1.1855472 9013641
-0.12510173 0.40952104 1.1855425 9013641
-0.12296265 0.40951911 1.1855369 9013641
-0.12082356 0.40951705 1.1855309 9013641
-0.11868493 0.40951645 1.1855292 9013641
-0.11654647 0.40951651 1.1855294 9013641
-0.11440738 0.40951425 1.1855228 9013641
-0.11226808 0.40951118 1.185514 9013641
-0.11013013 0.409513 1.1855192 9013641
-0.10799123 0.40951127 1.1855142 9013641
-0.10585189 0.40950781 1.1855042 9013641
-0.10371324 0.40950692 1.1855016 9013641
-0.101575 0.40950766 1.1855037 9013641
-0.099436164 0.40950593 1.1854987 9013641
-0.097297274 0.40950391 1.1854929 9013641
-0.095158525 0.40950242 1.1854886 9013641
-0.093019567 0.40949994 1.1854814 9013641
-0.090881646 0.409502 1.1854874 9013641
-0.088742152 0.4094969 1.1854726 9013641
-0.086603522 0.40949568 1.185469 9013641
-0.084464908 0.40949443 1.1854655 9013641
-0.082326315 0.40949324 1.185462 9013641
-0.08018773 0.40949202 1.1854584 9013641
-0.078049153 0.40949076 1.1854548 9013641
-0.075910755 0.40949041 1.1854538 9013641
-0.073772758 0.40949225 1.1854591 9013641
-0.071633756 0.4094885 1.1854483 9013641
-0.069495209 0.40948716 1.1854444 9013641
-0.067356676 0.40948582 1.1854405 9013641
-0.065218158 0.40948451 1.1854367 9013641
-0.063079648 0.40948316 1.1854328 9013641
-0.06094116 0.40948182 1.185429 9013641
-0.058802679 0.40948048 1.185425 9013641
-0.056664217 0.40947914 1.1854212 9013641
-0.05452577 0.40947783 1.1854174 9013641
-0.052387331 0.40947649 1.1854135 9013641
-0.05024891 0.40947515 1.1854097 9013641
-0.0481105 0.40947381 1.1854057 9013641
-0.045972105 0.4094725 1.1854019 9013641
-0.043833729 0.40947115 1.1853981 9013641
-0.04169536 0.40946981 1.1853942 9013641
-0.039557014 0.40946853 1.1853905 9013641
-0.037418678 0.40946725 1.1853868 9013641
-0.035280358 0.40946597 1.1853831 9013641
-0.033142056 0.40946475 1.1853795 9013641
-0.031003762 0.40946347 1.1853758 9013641
-0.028865481 0.40946218 1.1853721 9013641
-0.026727214 0.4094609 1.1853684 9013641
-0.024588959 0.40945965 1.1853647 9013641
-0.02245065 0.40945709 1.1853573 9013641
-0.020312428 0.40945581 1.1853536 9013641
-0.018174222 0.40945452 1.1853499 9013641
-0.016036028 0.40945324 1.1853462 9013641
-0.013897847 0.40945199 1.1853426 9013641
-0.011759681 0.40945071 1.1853389 9013641
-0.009621527 0.40944943 1.1853352 9013641
-0.0074833864 0.40944815 1.1853315 9013641
-0.0053452593 0.40944687 1.1853278 9013641
-0.0032071457 0.40944558 1.1853241 9013641
-0.0010690453 0.40944433 1.1853204 9013641
0.0010690418 0.40944299 1.1853166 9013641
0.0032071152 0.40944174 1.1853129 9013641
0.0053451755 0.40944046 1.1853092 9013641
0.0074832225 0.40943918 1.1853055 9013641
0.009621256 0.40943789 1.1853018 9013641
0.011759277 0.40943661 1.1852981 9013641
0.013897283 0.40943533 1.1852944 9013641
0.016035277 0.40943408 1.1852907 9013641
0.018173257 0.4094328 1.185287 9013641
0.020311223 0.40943152 1.1852833 9013641
0.022449177 0.40943024 1.1852796 9013641
0.024587117 0.40942895 1.1852759 9013641
0.026725044 0.40942767 1.1852722 9013641
0.028862955 0.40942636 1.1852684 9013641
0.031000854 0.40942508 1.1852647 9013641
0.033138741 0.4094238 1.185261 9013641
0.035276614 0.40942255 1.1852573 9013641
0.037414491 0.40942141 1.1852541 9013641
0.039552268 0.40941942 1.1852483 9013641
0.041690104 0.40941823 1.1852448 9013641
0.043827936 0.40941706 1.1852415 9013641
0.04596575 0.40941587 1.185238 9013641
0.048103556 0.40941471 1.1852347 9013641
0.050241351 0.40941355 1.1852313 9013641
0.052379128 0.40941235 1.1852279 9013641
0.054516897 0.40941122 1.1852245 9013641
0.056654654 0.40941006 1.1852212 9013641
0.058792397 0.40940887 1.1852177 9013641
0.060930129 0.40940771 1.1852144 9013641
0.063067831 0.40940642 1.1852107 9013641
0.065205522 0.40940517 1.185207 9013641
0.067343198 0.40940389 1.1852033 9013641
0.069480851 0.40940255 1.1851995 9013641
0.071618505 0.4094013 1.1851958 9013641
0.073756136 0.40940002 1.1851921 9013641
0.075893752 0.4093987 1.1851883 9013641
0.078031361 0.40939742 1.1851846 9013641
0.080168955 0.40939614 1.1851809 9013641
0.082306542 0.40939486 1.1851772 9013641
0.084444098 0.40939355 1.1851734 9013641
0.086581655 0.40939227 1.1851697 9013641
0.088719197 0.40939099 1.185166 9013641
0.090856723 0.4093897 1.1851623 9013641
0.092994228 0.40938839 1.1851585 9013641
0.095131733 0.40938711 1.1851548 9013641
0.097269222 0.40938586 1.1851511 9013641
0.099406697 0.40938458 1.1851474 7947332
0.099475682 0.40104404 1.161002 6946816
0.099516168 0.39293495 1.1375266 6946816
0.099555038 0.38514727 1.1149817 6946816
0.09959241 0.3776623 1.0933131 7471104
0.10150275 0.37743258 1.092648 7995649
0.10347411 0.37743413 1.0926526 7995649
0.10544547 0.37743565 1.092657 7995649
0.10741685 0.3774372 1.0926614 7995649
0.10938825 0.37743872 1.0926658 7995649
0.11135966 0.37744027 1.0926703 7995649
0.11333109 0.37744179 1.0926747 7995649
0.11530253 0.37744331 1.0926791 7995649
0.117274 0.37744489 1.0926837 7995649
0.11924548 0.37744641 1.0926881 7995649
0.12121696 0.37744793 1.0926925 7995649
0.12318848 0.37744951 1.092697 7995649
0.12516001 0.37745103 1.0927014 7995649
0.12713154 0.37745255 1.0927058 7995649
0.12910311 0.3774541 1.0927104 7995649
0.13107467 0.37745565 1.0927148 7995649
0.13304625 0.37745717 1.0927192 7995649
0.13501786 0.37745869 1.0927236 7995649
0.13698949 0.37746024 1.0927281 7995649
0.13896112 0.37746176 1.0927325 7995649
0.14093277 0.37746331 1.092737 7995649
0.14290445 0.37746486 1.0927415 7995649
0.14487614 0.37746638 1.0927459 7995649
0.14684783 0.3774679 1.0927503 7995649
0.14881957 0.37746948 1.0927548 7995649
0.15079129 0.377471 1.0927593 7995649
0.15276304 0.37747252 1.0927637 7995649
0.15473481 0.3774741 1.0927682 7995649
0.15670659 0.37747562 1.0927726 7995649
0.15867838 0.37747714 1.092777 7995649
0.16065021 0.37747869 1.0927815 7995649
0.16262203 0.37748021 1.092786 7995649
0.16459389 0.37748179 1.0927905 7995649
0.16656575 0.37748331 1.0927949 7995649
0.16853763 0.37748489 1.0927994 7995649
0.17050952 0.37748641 1.0928038 7995649
0.17248145 0.37748796 1.0928084 7995649
0.17445336 0.37748948 1.0928128 7995649
0.17642531 0.377491 1.0928172 7995649
0.17839727 0.37749258 1.0928217 7995649
0.18036924 0.3774941 1.0928261 7995649
0.18234125 0.37749568 1.0928307 7995649
0.18431325 0.3774972 1.0928351 7995649
0.18628529 0.37749875 1.0928396 7995649
0.18825732 0.37750027 1.092844 7995649
0.19022939 0.37750185 1.0928485 7995649
0.19220145 0.37750337 1.092853 7995649
0.19417356 0.37750494 1.0928575 7995649
0.19614565 0.37750646 1.0928619 7995649
0.19811779 0.37750801 1.0928664 7995649
-0.18638153 0.4100394 1.1808766 9013641
-0.18425091 0.41003814 1.180873 9013641
-0.18212031 0.41003695 1.1808696 9013641
-0.17998971 0.41003576 1.1808661 9013641
-0.17785913 0.41003451 1.1808625 9013641
-0.17572856 0.41003332 1.1808591 9013641
-0.17359801 0.41003209 1.1808556 9013641
-0.17146747 0.4100309 1.1808522 9013641
-0.16933693 0.41002965 1.1808486 9013641
-0.16720641 0.41002846 1.1808451 9013641
-0.16507596 0.41002738 1.180842 9013641
-0.16294543 0.4100261 1.1808383 9013641
-0.1608147 0.41002423 1.180833 9013641
-0.15868393 0.4100222 1.1808271 9013641
-0.15655376 0.41002175 1.1808258 9013641
-0.15442337 0.41002068 1.1808227 9013641
-0.15229245 0.41001812 1.1808153 9013641
-0.15016195 0.41001666 1.1808112 9013641
-0.14803214 0.41001707 1.1808124 9013641
-0.1459022 0.4100171 1.1808125 9013641
-0.14377111 0.41001394 1.1808033 9013641
-0.14164008 0.41001076 1.1807941 9013641
-0.13950959 0.41000909 1.1807894 9013641
-0.1373792 0.41000769 1.1807853 9013641
-0.13524899 0.41000676 1.1807827 9013641
-0.13311884 0.41000602 1.1807805 9013641
-0.13098863 0.41000503 1.1807777 9013641
-0.12885822 0.41000342 1.180773 9013641
-0.1267278 0.41000172 1.1807681 9013641
-0.12459744 0.41000012 1.1807635 9013641
-0.122467 0.40999821 1.180758 9013641
-0.12033654 0.40999618 1.1807522 9013641
-0.11820653 0.40999565 1.1807506 9013641
-0.11607669 0.40999565 1.1807506 9013641
-0.11394615 0.40999314 1.1807435 9013641
-0.11181565 0.4099907 1.1807364 9013641
-0.1096863 0.40999249 1.1807415 9013641
-0.10755575 0.40998974 1.1807337 9013641
-0.10542527 0.40998715 1.1807262 9013641
-0.10329517 0.40998599 1.1807228 9013641
-0.10116554 0.40998664 1.1807247 9013641
-0.099035315 0.40998492 1.1807197 9013641
-0.096905038 0.40998283 1.1807138 9013641
-0.094775409 0.40998352 1.1807157 9013641
-0.092645064 0.40998101 1.1807085 9013641
-0.090514645 0.40997809 1.1807001 9013641
-0.088384457 0.40997609 1.1806943 9013641
-0.086254455 0.4099749 1.1806909 9013641
-0.084124461 0.40997365 1.1806873 9013641
-0.081994481 0.4099724 1.1806837 9013641
-0.079864524 0.40997121 1.1806803 9013641
-0.077734567 0.40996999 1.1806767 9013641
-0.075604632 0.40996876 1.1806732 9013641
-0.073474988 0.40996915 1.1806743 9013641
-0.071345299 0.40996927 1.1806747 9013641
-0.069215104 0.40996638 1.1806663 9013641
-0.067085192 0.40996504 1.1806625 9013641
-0.064955294 0.40996373 1.1806587 9013641
-0.062825404 0.40996239 1.1806549 9013641
-0.060695536 0.40996107 1.1806511 9013641
-0.058565676 0.40995973 1.1806473 9013641
-0.056435835 0.40995842 1.1806434 9013641
-0.054306 0.40995705 1.1806395 9013641
-0.052176185 0.40995574 1.1806357 9013641
-0.050046381 0.4099544 1.1806319 9013641
-0.047916595 0.40995309 1.1806281 9013641
-0.04578682 0.40995175 1.1806242 9013641
-0.043657061 0.40995044 1.1806204 9013641
-0.041527312 0.40994909 1.1806166 9013641
-0.039397582 0.40994781 1.1806129 9013641
-0.037267867 0.40994653 1.1806092 9013641
-0.035138164 0.40994525 1.1806055 9013641
-0.033008479 0.40994403 1.180602 9013641
-0.030878803 0.40994275 1.1805983 9013641
-0.028749144 0.40994149 1.1805947 9013641
-0.026619494 0.40994021 1.180591 9013641
-0.024489861 0.40993896 1.1805874 9013641
-0.022360163 0.40993631 1.1805798 9013641
-0.020230561 0.40993509 1.1805762 9013641
-0.018100973 0.40993381 1.1805725 9013641
-0.015971396 0.40993252 1.1805688 9013641
-0.013841835 0.40993127 1.1805652 9013641
-0.011712286 0.40992999 1.1805615 9013641
-0.0095827486 0.40992871 1.1805578 9013641
-0.0074532256 0.40992743 1.1805542 9013641
-0.005323716 0.40992615 1.1805505 9013641
-0.0031942197 0.40992486 1.1805468 9013641
-0.0010647366 0.40992361 1.1805432 9013641
0.0010647334 0.40992233 1.1805395 9013641
0.0031941899 0.40992105 1.1805358 9013641
0.0053236331 0.40991977 1.1805321 9013641
0.007453063 0.40991849 1.1805284 9013641
0.0095824795 0.40991721 1.1805247 9013641
0.011711884 0.40991595 1.1805211 9013641
0.013841274 0.40991467 1.1805174 9013641
0.015970651 0.40991339 1.1805137 9013641
0.018100016 0.40991211 1.18051 9013641
0.020229366 0.40991083 1.1805063 9013641
0.022358702 0.40990955 1.1805027 9013641
0.024488028 0.40990829 1.1804991 9013641
0.026617339 0.40990701 1.1804954 9013641
0.028746635 0.40990573 1.1804917 9013641
0.030875919 0.40990445 1.180488 9013641
0.033005189 0.40990317 1.1804843 9013641
0.035134446 0.40990189 1.1804806 9013641
0.037263725 0.40990096 1.180478 9013641
0.03939287 0.40989879 1.1804717 9013641
0.041522097 0.40989763 1.1804683 9013641
0.043651305 0.4098964 1.1804649 9013641
0.04578051 0.40989524 1.1804615 9013641
0.047909699 0.40989411 1.1804582 9013641
0.050038878 0.40989295 1.1804549 9013641
0.052168045 0.40989178 1.1804515 9013641
0.054297198 0.40989062 1.1804482 9013641
0.056426335 0.40988943 1.1804447 9013641
0.058555465 0.40988827 1.1804414 9013641
0.060684584 0.40988711 1.180438 9013641
0.062813677 0.40988585 1.1804345 9013641
0.064942747 0.40988457 1.1804308 9013641
0.06707181 0.40988329 1.1804271 9013641
0.069200858 0.40988201 1.1804234 9013641
0.071329892 0.40988073 1.1804197 9013641
0.07345891 0.40987945 1.180416 9013641
0.075587921 0.40987816 1.1804123 9013641
0.077716917 0.40987688 1.1804086 9013641
0.079845898 0.4098756 1.1804049 9013641
0.081974864 0.40987432 1.1804012 9013641
0.084103815 0.40987304 1.1803975 9013641
0.086232759 0.40987176 1.1803938 9013641
0.088361681 0.40987048 1.1803901 9013641
0.090490595 0.40986916 1.1803864 9013641
0.092619501 0.40986788 1.1803827 9013641
0.094748385 0.4098666 1.180379 9013641
0.096877262 0.40986532 1.1803753 9013641
0.099006116 0.40986404 1.1803716 8480615
0.099477753 0.40314668 1.1610262 6946816
0.099518187 0.39499488 1.1375498 6946816
0.099557042 0.38716626 1.1150041 6946816
0.09959437 0.37964189 1.0933346 7471104
0.10152179 0.37947467 1.092853 7995649
0.10349352 0.37947625 1.0928575 7995649
0.10546525 0.37947777 1.0928619 7995649
0.107437 0.37947929 1.0928663 7995649
0.10940877 0.37948087 1.0928708 7995649
0.11138055 0.37948239 1.0928752 7995649
0.11335234 0.37948394 1.0928797 7995649
0.11532417 0.37948552 1.0928842 7995649
0.117296 0.37948704 1.0928886 7995649
0.11926784 0.37948856 1.092893 7995649
0.12123971 0.37949014 1.0928975 7995649
0.12321158 0.37949169 1.0929019 7995649
0.12518348 0.37949321 1.0929064 7995649
0.12715539 0.37949479 1.0929109 7995649
0.12912732 0.37949631 1.0929153 7995649
0.13109925 0.37949786 1.0929197 7995649
0.13307123 0.37949941 1.0929242 7995649
0.13504319 0.37950096 1.0929286 7995649
0.13701518 0.37950248 1.0929331 7995649
0.13898718 0.37950402 1.0929375 7995649
0.14095922 0.37950557 1.092942 7995649
0.14293125 0.37950712 1.0929464 7995649
0.1449033 0.37950864 1.0929508 7995649
0.14687538 0.37951022 1.0929554 7995649
0.14884746 0.37951174 1.0929598 7995649
0.15081957 0.37951329 1.0929642 7995649
0.15279169 0.37951484 1.0929687 7995649
0.15476383 0.37951639 1.0929731 7995649
0.15673597 0.37951791 1.0929775 7995649
0.15870816 0.37951949 1.0929821 7995649
0.16068032 0.37952101 1.0929865 7995649
0.16265254 0.37952259 1.092991 7995649
0.16462475 0.37952414 1.0929954 7995649
0.16659699 0.37952569 1.0929999 7995649
0.16856924 0.37952724 1.0930043 7995649
0.17054151 0.37952879 1.0930089 7995649
0.17251378 0.37953034 1.0930133 7995649
0.17448609 0.37953186 1.0930177 7995649
0.1764584 0.37953344 1.0930222 7995649
0.17843072 0.37953496 1.0930266 7995649
0.18040308 0.37953654 1.0930312 7995649
0.18237545 0.37953809 1.0930356 7995649
0.18434782 0.37953964 1.0930401 7995649
0.18632022 0.37954119 1.0930445 7995649
0.18829264 0.37954277 1.093049 7995649
0.19026506 0.37954429 1.0930535 7995649
0.19223751 0.37954587 1.093058 7995649
0.19420996 0.37954739 1.0930624 7995649
0.19618244 0.37954897 1.0930669 7995649
0.19815494 0.37955049 1.0930713 7995649
-0.18563318 0.41051453 1.1761352 9013641
-0.18351112 0.41051331 1.1761317 9013641
-0.18138908 0.41051212 1.1761283 9013641
-0.17926703 0.4105109 1.1761248 9013641
-0.17714502 0.41050971 1.1761214 9013641
-0.175023 0.41050848 1.1761179 9013641
-0.172901 0.41050729 1.1761144 9013641
-0.17077902 0.41050607 1.176111 9013641
-0.16865703 0.41050488 1.1761075 9013641
-0.16653509 0.41050372 1.1761042 9013641
-0.16441318 0.41050258 1.176101 9013641
-0.16229102 0.41050079 1.1760958 9013641
-0.16016877 0.41049877 1.17609 9013641
-0.15804712 0.41049823 1.1760885 9013641
-0.15592526 0.4104971 1.1760852 9013641
-0.15380286 0.41049451 1.1760778 9013641
-0.15168104 0.41049343 1.1760747 9013641
-0.14955978 0.41049385 1.1760759 9013641
-0.1474382 0.4104934 1.1760746 9013641
-0.14531565 0.41049019 1.1760654 9013641
-0.14319316 0.41048706 1.1760565 9013641
-0.14107129 0.41048566 1.1760525 9013641
-0.13894956 0.41048458 1.1760494 9013641
-0.13682766 0.410483 1.1760448 9013641
-0.13470607 0.41048229 1.1760428 9013641
-0.13258441 0.41048133 1.1760401 9013641
-0.13046271 0.41048023 1.176037 9013641
-0.12834084 0.41047859 1.1760322 9013641
-0.12621899 0.41047686 1.1760273 9013641
-0.12409719 0.41047534 1.1760229 9013641
-0.12197532 0.41047347 1.1760175 9013641
-0.11985341 0.41047141 1.1760117 9013641
-0.11773197 0.41047093 1.1760103 9013641
-0.11561068 0.41047096 1.1760104 9013641
-0.11348864 0.41046825 1.1760026 9013641
-0.11136684 0.41046634 1.1759971 9013641
-0.10924605 0.41046819 1.1760024 9013641
-0.10712377 0.41046435 1.1759914 9013641
-0.10500207 0.41046265 1.1759865 9013641
-0.10288046 0.41046119 1.1759824 9013641
-0.10075936 0.41046181 1.1759841 9013641
-0.0986377 0.41046011 1.1759793 9013641
-0.096515954 0.41045794 1.1759731 9013641
-0.094394431 0.41045669 1.1759695 9013641
-0.092272781 0.41045478 1.175964 9013641
-0.090151101 0.41045266 1.1759579 9013641
-0.088029638 0.41045144 1.1759545 9013641
-0.085908189 0.41045025 1.175951 9013641
-0.083786748 0.410449 1.1759474 9013641
-0.081665322 0.41044778 1.175944 9013641
-0.079543911 0.41044658 1.1759405 9013641
-0.077422515 0.41044536 1.1759371 9013641
-0.075301118 0.41044414 1.1759335 9013641
-0.073180102 0.41044492 1.1759357 9013641
-0.071058951 0.410445 1.175936 9013641
-0.068937242 0.41044176 1.1759267 9013641
-0.066815883 0.41044042 1.1759229 9013641
-0.064694531 0.4104391 1.1759191 9013641
-0.062573202 0.41043776 1.1759152 9013641
-0.060451884 0.41043648 1.1759115 9013641
-0.058330577 0.41043514 1.1759077 9013641
-0.056209281 0.4104338 1.1759039 9013641
-0.054088 0.41043249 1.1759001 9013641
-0.051966734 0.41043115 1.1758963 9013641
-0.049845479 0.41042981 1.1758925 9013641
-0.047724243 0.41042849 1.1758887 9013641
-0.045603018 0.41042715 1.1758848 9013641
-0.043481808 0.41042587 1.1758811 9013641
-0.041360613 0.41042453 1.1758773 9013641
-0.039239433 0.41042325 1.1758736 9013641
-0.037118267 0.410422 1.1758701 9013641
-0.034997113 0.41042072 1.1758664 9013641
-0.032875977 0.41041946 1.1758628 9013641
-0.030754853 0.41041821 1.1758592 9013641
-0.028633738 0.4104169 1.1758555 9013641
-0.02651264 0.41041568 1.1758519 9013641
-0.024391554 0.41041443 1.1758484 9013641
-0.022270482 0.41041318 1.1758448 9013641
-0.020149354 0.41041049 1.1758372 9013641
-0.018028311 0.41040921 1.1758335 9013641
-0.015907284 0.41040793 1.1758298 9013641
-0.013786271 0.41040668 1.1758262 9013641
-0.01166527 0.4104054 1.1758225 9013641
-0.0095442822 0.41040415 1.1758189 9013641
-0.0074233073 0.41040286 1.1758152 9013641
-0.0053023463 0.41040161 1.1758116 9013641
-0.0031813977 0.4104003 1.175808 9013641
-0.0010604626 0.41039902 1.1758043 9013641
0.0010604594 0.41039777 1.1758007 9013641
0.0031813681 0.41039649 1.175797 9013641
0.0053022634 0.41039521 1.1757933 9013641
0.0074231462 0.41039395 1.1757897 9013641
0.0095440149 0.41039267 1.175786 9013641
0.011664872 0.41039142 1.1757824 9013641
0.013785714 0.41039011 1.1757787 9013641
0.015906546 0.41038886 1.1757752 9013641
0.018027361 0.41038758 1.1757715 9013641
0.020148164 0.41038629 1.1757678 9013641
0.022268957 0.41038504 1.1757642 9013641
0.024389733 0.41038376 1.1757605 9013641
0.026510498 0.41038251 1.1757569 9013641
0.028631248 0.41038123 1.1757532 9013641
0.030751985 0.41037992 1.1757495 9013641
0.03287271 0.41037866 1.175746 9013641
0.034993421 0.41037738 1.1757423 9013641
0.037114061 0.41037548 1.1757368 9013641
0.039234754 0.41037431 1.1757334 9013641
0.041355435 0.41037315 1.1757301 9013641
0.043476101 0.41037199 1.1757268 9013641
0.045596756 0.41037083 1.1757234 9013641
0.0477174 0.41036963 1.1757201 9013641
0.049838033 0.41036847 1.1757168 9013641
0.051958654 0.41036731 1.1757134 9013641
0.054079261 0.41036615 1.1757101 9013641
0.056199856 0.41036499 1.1757067 9013641
0.05832044 0.41036382 1.1757034 9013641
0.06044101 0.41036266 1.1757001 9013641
0.062561564 0.41036144 1.1756966 9013641
0.064682096 0.41036016 1.1756929 9013641
0.066802606 0.41035888 1.1756892 9013641
0.068923108 0.41035759 1.1756855 9013641
0.071043603 0.41035634 1.1756819 9013641
0.073164076 0.41035503 1.1756783 9013641
0.075284541 0.41035375 1.1756746 9013641
0.077404983 0.41035247 1.1756709 9013641
0.079525426 0.41035122 1.1756673 9013641
0.081645854 0.41034994 1.1756636 9013641
0.083766259 0.41034862 1.1756599 9013641
0.085886657 0.41034734 1.1756562 9013641
0.088007048 0.41034609 1.1756526 9013641
0.090127416 0.41034481 1.1756489 9013641
0.092247769 0.41034353 1.1756452 9013641
0.094368108 0.41034222 1.1756415 9013641
0.096488446 0.41034096 1.175638 9013641
0.098608762 0.41033968 1.1756343 9013641
0.099479824 0.40524939 1.1610504 6946816
0.099520229 0.39705494 1.1375731 6946816
0.099559031 0.38918531 1.1150264 6946816
0.099596322 0.38162154 1.093356 7471104
0.10154084 0.38151753 1.093058 7995649
0.10351293 0.38151908 1.0930624 7995649
0.10548504 0.38152066 1.0930669 7995649
0.10745715 0.38152218 1.0930713 7995649
0.10942928 0.38152373 1.0930758 7995649
0.11140145 0.38152531 1.0930803 7995649
0.11337361 0.38152686 1.0930847 7995649
0.11534579 0.38152838 1.0930891 7995649
0.117318 0.38152996 1.0930936 7995649
0.11929021 0.38153151 1.093098 7995649
0.12126244 0.38153306 1.0931025 7995649
0.1232347 0.38153464 1.093107 7995649
0.12520696 0.38153616 1.0931114 7995649
0.12717925 0.38153774 1.0931159 7995649
0.12915154 0.38153929 1.0931203 7995649
0.13112386 0.38154083 1.0931247 7995649
0.13309619 0.38154241 1.0931293 7995649
0.13506854 0.38154393 1.0931337 7995649
0.13704088 0.38154548 1.0931381 7995649
0.13901328 0.38154706 1.0931426 7995649
0.14098567 0.38154861 1.093147 7995649
0.14295806 0.38155013 1.0931515 7995649
0.1449305 0.38155174 1.093156 7995649
0.14690293 0.38155326 1.0931604 7995649
0.14887539 0.38155481 1.0931648 7995649
0.15084787 0.38155639 1.0931693 7995649
0.15282036 0.38155794 1.0931737 7995649
0.15479286 0.38155946 1.0931782 7995649
0.15676539 0.38156104 1.0931827 7995649
0.15873793 0.38156259 1.0931871 7995649
0.16071047 0.38156414 1.0931915 7995649
0.16268305 0.38156572 1.093196 7995649
0.16465564 0.38156724 1.0932004 7995649
0.16662824 0.38156882 1.093205 7995649
0.16860086 0.38157037 1.0932094 7995649
0.1705735 0.38157195 1.0932139 7995649
0.17254615 0.3815735 1.0932183 7995649
0.17451882 0.38157508 1.0932229 7995649
0.17649151 0.3815766 1.0932273 7995649
0.17846422 0.38157818 1.0932318 7995649
0.18043692 0.38157973 1.0932362 7995649
0.18240967 0.38158131 1.0932407 7995649
0.18438241 0.38158286 1.0932451 7995649
0.18635519 0.38158444 1.0932497 7995649
0.18832795 0.38158599 1.0932541 7995649
0.19030076 0.38158756 1.0932586 7995649
0.19227357 0.38158908 1.093263 7995649
0.19424641 0.38159066 1.0932676 7995649
0.19621925 0.38159221 1.093272 7995649
0.19819212 0.38159379 1.0932765 7995649
-0.18700442 0.41098711 1.1714352 6316128
-0.18489085 0.41098595 1.1714319 9013641
-0.18277727 0.41098472 1.1714284 9013641
-0.1806637 0.41098353 1.171425 9013641
-0.17855015 0.41098231 1.1714215 9013641
-0.17643662 0.41098109 1.1714181 9013641
-0.17432308 0.4109799 1.1714146 9013641
-0.17220959 0.4109787 1.1714113 9013641
-0.17009608 0.41097751 1.1714078 9013641
-0.16798259 0.41097629 1.1714044 9013641
-0.16586921 0.41097528 1.1714015 9013641
-0.16375552 0.41097352 1.1713965 9013641
-0.16164173 0.41097146 1.1713907 9013641
-0.15952855 0.4109709 1.171389 9013641
-0.15741514 0.41096973 1.1713856 9013641
-0.1553012 0.41096714 1.1713783 9013641
-0.15318798 0.41096637 1.1713761 9013641
-0.1510752 0.41096678 1.1713773 9013641
-0.1489619 0.41096583 1.1713746 9013641
-0.14684784 0.41096264 1.1713655 9013641
-0.14473389 0.41095972 1.1713572 9013641
-0.14262053 0.41095844 1.1713535 9013641
-0.14050722 0.41095722 1.17135 9013641
-0.13839377 0.41095555 1.1713452 9013641
-0.13628061 0.41095471 1.1713428 9013641
-0.13416749 0.410954 1.1713408 9013641
-0.13205424 0.41095278 1.1713374 9013641
-0.129941 0.41095161 1.171334 9013641
-0.12782761 0.41094995 1.1713293 9013641
-0.12571424 0.41094822 1.1713244 9013641
-0.12360095 0.41094676 1.1713202 9013641
-0.12148756 0.41094488 1.1713148 9013641
-0.11937415 0.41094288 1.1713091 9013641
-0.11726122 0.41094247 1.1713079 9013641
-0.1151484 0.41094247 1.1713079 9013641
-0.11303479 0.41093957 1.1712997 9013641
-0.11092163 0.41093823 1.1712959 9013641
-0.10880931 0.41094002 1.171301 9013641
-0.10669525 0.41093516 1.1712872 9013641
-0.10458223 0.41093421 1.1712844 9013641
-0.10246906 0.41093263 1.1712799 9013641
-0.10035644 0.4109332 1.1712816 9013641
-0.098243229 0.41093138 1.1712763 9013641
-0.096129969 0.4109292 1.1712701 9013641
-0.094017416 0.41093007 1.1712726 9013641
-0.091904022 0.41092718 1.1712644 9013641
-0.089790635 0.41092423 1.1712559 9013641
-0.087677658 0.410923 1.1712525 9013641
-0.085564688 0.41092178 1.171249 9013641
-0.08345174 0.41092059 1.1712456 9013641
-0.081338793 0.41091937 1.1712421 9013641
-0.079225868 0.41091815 1.1712387 9013641
-0.07711295 0.41091692 1.1712352 9013641
-0.07500004 0.41091573 1.1712317 9013641
-0.072887339 0.41091555 1.1712313 9013641
-0.070774652 0.41091552 1.1712312 9013641
-0.068661615 0.41091335 1.171225 9013641
-0.066548727 0.41091201 1.1712211 9013641
-0.064435862 0.41091067 1.1712173 9013641
-0.062323015 0.41090935 1.1712136 9013641
-0.060210176 0.41090804 1.1712098 9013641
-0.058097348 0.4109067 1.171206 9013641
-0.055984538 0.41090539 1.1712023 9013641
-0.05387174 0.41090405 1.1711985 9013641
-0.05175896 0.41090277 1.1711948 9013641
-0.049646188 0.41090143 1.171191 9013641
-0.04753343 0.41090009 1.1711872 9013641
-0.045420688 0.41089877 1.1711835 9013641
-0.043307956 0.41089746 1.1711797 9013641
-0.041195244 0.41089615 1.171176 9013641
-0.039082546 0.41089484 1.1711723 9013641
-0.036969863 0.41089359 1.1711687 9013641
-0.034857191 0.41089234 1.1711651 9013641
-0.032744534 0.41089109 1.1711615 9013641
-0.030631891 0.41088983 1.171158 9013641
-0.02851926 0.41088858 1.1711544 9013641
-0.02640664 0.41088733 1.1711508 9013641
-0.024294036 0.41088608 1.1711472 9013641
-0.022181442 0.41088483 1.1711437 9013641
-0.020068809 0.41088247 1.171137 9013641
-0.017956231 0.4108808 1.1711322 9013641
-0.015843684 0.41087955 1.1711286 9013641
-0.013731151 0.4108783 1.1711251 9013641
-0.011618631 0.41087705 1.1711215 9013641
-0.0095061222 0.41087574 1.1711178 9013641
-0.0073936284 0.41087449 1.1711142 9013641
-0.0052811466 0.4108732 1.1711105 9013641
-0.0031686781 0.41087192 1.1711069 9013641
-0.0010562228 0.41087067 1.1711034 9013641
0.0010562195 0.41086939 1.1710997 9013641
0.0031686488 0.41086814 1.1710961 9013641
0.0052810651 0.41086689 1.1710925 9013641
0.0073934682 0.41086558 1.1710888 9013641
0.0095058586 0.41086432 1.1710852 9013641
0.011618236 0.41086307 1.1710817 9013641
0.0137306 0.41086176 1.171078 9013641
0.01584295 0.41086051 1.1710744 9013641
0.017955288 0.41085926 1.1710708 9013641
0.020067614 0.41085798 1.1710671 9013641
0.022179926 0.41085672 1.1710635 9013641
0.024292225 0.41085547 1.17106 9013641
0.026404509 0.41085416 1.1710563 9013641
0.028516782 0.41085291 1.1710527 9013641
0.030629044 0.41085166 1.1710491 9013641
0.03274129 0.41085035 1.1710454 9013641
0.034853548 0.41084939 1.1710427 9013641
0.036965683 0.41084719 1.1710364 9013641
0.039077897 0.41084599 1.171033 9013641
0.041190103 0.41084486 1.1710298 9013641
0.043302294 0.4108437 1.1710265 9013641
0.04541447 0.41084254 1.1710231 9013641
0.047526635 0.41084138 1.1710198 9013641
0.049638793 0.41084024 1.1710166 9013641
0.051750936 0.41083905 1.1710132 9013641
0.053863067 0.41083789 1.1710099 9013641
0.055975184 0.41083673 1.1710066 9013641
0.058087293 0.41083559 1.1710033 9013641
0.060199387 0.41083443 1.171 9013641
0.062311463 0.41083321 1.1709965 9013641
0.064423516 0.41083196 1.170993 9013641
0.066535555 0.41083065 1.1709893 9013641
0.068647578 0.41082937 1.1709856 9013641
0.070759594 0.41082811 1.170982 9013641
0.072871596 0.4108268 1.1709783 9013641
0.074983582 0.41082555 1.1709747 9013641
0.077095553 0.41082427 1.170971 9013641
0.079207517 0.41082302 1.1709675 9013641
0.081319466 0.41082171 1.1709638 9013641
0.0834314 0.41082045 1.1709602 9013641
0.085543327 0.4108192 1.1709566 9013641
0.087655231 0.41081789 1.1709529 9013641
0.089767121 0.41081661 1.1709492 9013641
0.09187901 0.41081536 1.1709456 9013641
0.093990877 0.41081405 1.1709419 9013641
0.096102737 0.4108128 1.1709384 9013641
0.098214574 0.41081151 1.1709347 9013641
0.099481903 0.40735221 1.1610746 6946816
0.099522263 0.39911506 1.1375964 6946816
0.099561021 0.39120442 1.1150486 6946816
0.099598274 0.38360128 1.0933775 7471104
0.1015599 0.38356116 1.0932631 7995649
0.10353235 0.38356271 1.0932676 7995649
0.10550483 0.38356426 1.093272 7995649
0.10747732 0.38356584 1.0932765 7995649
0.10944983 0.38356739 1.0932809 7995649
0.11142235 0.38356894 1.0932853 7995649
0.11339489 0.38357055 1.0932899 7995649
0.11536744 0.3835721 1.0932943 7995649
0.11734001 0.38357362 1.0932987 7995649
0.1193126 0.38357523 1.0933032 7995649
0.1212852 0.38357678 1.0933076 7995649
0.12325782 0.38357833 1.093312 7995649
0.12523046 0.38357991 1.0933166 7995649
0.12720311 0.38358146 1.093321 7995649
0.12917577 0.38358301 1.0933254 7995649
0.13114846 0.38358459 1.0933299 7995649
0.13312115 0.38358614 1.0933343 7995649
0.13509388 0.38358772 1.0933388 7995649
0.1370666 0.38358927 1.0933433 7995649
0.13903935 0.38359082 1.0933477 7995649
0.14101212 0.38359243 1.0933522 7995649
0.1429849 0.38359395 1.0933566 7995649
0.14495769 0.3835955 1.093361 7995649
0.1469305 0.38359711 1.0933656 7995649
0.14890333 0.38359866 1.09337 7995649
0.15087616 0.38360021 1.0933744 7995649
0.15284903 0.38360178 1.0933789 7995649
0.1548219 0.38360333 1.0933833 7995649
0.1567948 0.38360488 1.0933877 7995649
0.15876772 0.38360646 1.0933923 7995649
0.16074063 0.38360801 1.0933967 7995649
0.16271357 0.38360956 1.0934011 7995649
0.16468653 0.38361114 1.0934056 7995649
0.1666595 0.38361269 1.09341 7995649
0.16863251 0.3836143 1.0934145 7995649
0.1706055 0.38361582 1.093419 7995649
0.17257853 0.38361743 1.0934235 7995649
0.17455156 0.38361898 1.0934279 7995649
0.17652462 0.38362056 1.0934324 7995649
0.17849769 0.38362211 1.0934368 7995649
0.18047079 0.38362369 1.0934414 7995649
0.18244389 0.38362524 1.0934458 7995649
0.18441701 0.38362685 1.0934503 7995649
0.18639016 0.38362843 1.0934548 7995649
0.1883633 0.38362998 1.0934592 7995649
0.19033648 0.38363156 1.0934638 7995649
0.19230966 0.38363311 1.0934682 7995649
0.19428286 0.38363469 1.0934727 7995649
0.19625607 0.38363624 1.0934771 7995649
0.19822931 0.38363785 1.0934817 7995649
-0.18625955 0.41145474 1.1667693 9013641
-0.18415441 0.41145355 1.1667659 9013641
-0.18204924 0.41145232 1.1667625 9013641
-0.17994411 0.41145116 1.1667591 9013641
-0.17783898 0.41144994 1.1667557 9013641
-0.17573386 0.41144878 1.1667523 9013641
-0.17362876 0.41144755 1.1667489 9013641
-0.17152366 0.41144633 1.1667454 9013641
-0.16941859 0.41144514 1.1667421 9013641
-0.16731364 0.41144422 1.1667395 9013641
-0.16520835 0.41144246 1.1667345 9013641
-0.16310298 0.41144043 1.1667287 9013641
-0.16099817 0.41143978 1.1667268 9013641
-0.15889315 0.41143855 1.1667234 9013641
-0.15678762 0.41143599 1.1667161 9013641
-0.15468292 0.41143551 1.1667148 9013641
-0.15257855 0.41143593 1.166716 9013641
-0.15047349 0.4114345 1.1667119 9013641
-0.14836784 0.41143137 1.166703 9013641
-0.14626235 0.41142863 1.1666952 9013641
-0.14415742 0.41142741 1.1666918 9013641
-0.14205249 0.4114261 1.1666881 9013641
-0.13994762 0.41142496 1.1666849 9013641
-0.13784261 0.41142339 1.1666803 9013641
-0.13573791 0.41142267 1.1666783 9013641
-0.13363311 0.4114216 1.1666753 9013641
-0.13152833 0.41142064 1.1666726 9013641
-0.12942345 0.41141924 1.1666687 9013641
-0.12731847 0.41141754 1.1666638 9013641
-0.12521352 0.41141585 1.166659 9013641
-0.12310866 0.41141441 1.1666549 9013641
-0.12100369 0.41141257 1.1666497 9013641
-0.1188987 0.41141054 1.166644 9013641
-0.11679421 0.41141021 1.166643 9013641
-0.11468977 0.41141009 1.1666427 9013641
-0.11258455 0.41140711 1.1666342 9013641
-0.11047995 0.41140631 1.1666319 9013641
-0.10837583 0.41140726 1.1666347 9013641
-0.10627022 0.41140255 1.1666213 9013641
-0.1041657 0.4114019 1.1666194 9013641
-0.10206134 0.4114019 1.1666194 9013641
-0.099956714 0.41140079 1.1666163 9013641
-0.097851917 0.41139892 1.166611 9013641
-0.095747076 0.41139677 1.1666049 9013641
-0.093642361 0.41139507 1.1666001 9013641
-0.091538124 0.41139546 1.1666012 9013641
-0.089433044 0.411392 1.1665914 9013641
-0.087328479 0.41139078 1.1665879 9013641
-0.085223928 0.41138956 1.1665845 9013641
-0.083119385 0.41138837 1.166581 9013641
-0.081014864 0.41138718 1.1665777 9013641
-0.078910351 0.41138595 1.1665742 9013641
-0.076805845 0.41138473 1.1665708 9013641
-0.074701354 0.41138351 1.1665673 9013641
-0.072596878 0.41138229 1.1665639 9013641
-0.070492856 0.41138369 1.1665678 9013641
-0.068388164 0.41138113 1.1665605 9013641
-0.066283703 0.41137981 1.1665568 9013641
-0.064179257 0.41137853 1.1665531 9013641
-0.062074818 0.41137716 1.1665493 9013641
-0.059970394 0.41137588 1.1665456 9013641
-0.057865988 0.41137457 1.1665419 9013641
-0.055761587 0.41137323 1.1665381 9013641
-0.053657208 0.41137192 1.1665344 9013641
-0.05155284 0.41137061 1.1665307 9013641
-0.049448479 0.41136926 1.1665269 9013641
-0.047344141 0.41136795 1.1665232 9013641
-0.045239806 0.41136661 1.1665194 9013641
-0.043135494 0.41136533 1.1665157 9013641
-0.041031193 0.41136402 1.166512 9013641
-0.038926911 0.41136277 1.1665084 9013641
-0.036822639 0.41136149 1.1665049 9013641
-0.034718383 0.41136023 1.1665013 9013641
-0.032614138 0.41135898 1.1664977 9013641
-0.03050991 0.41135776 1.1664943 9013641
-0.028405691 0.41135648 1.1664907 9013641
-0.026301485 0.41135523 1.1664871 9013641
-0.024197292 0.41135398 1.1664835 9013641
-0.022093112 0.41135269 1.1664799 9013641
-0.019988839 0.41134927 1.1664702 9013641
-0.017884726 0.41134867 1.1664685 9013641
-0.01578059 0.41134742 1.1664649 9013641
-0.01367647 0.41134614 1.1664613 9013641
-0.011572363 0.41134489 1.1664578 9013641
-0.0094682677 0.41134363 1.1664542 9013641
-0.0073641855 0.41134235 1.1664506 9013641
-0.0052601164 0.4113411 1.166447 9013641
-0.0031560599 0.41133979 1.1664433 9013641
-0.0010520167 0.41133854 1.1664398 9013641
0.0010520135 0.41133729 1.1664362 9013641
0.0031560308 0.411336 1.1664326 9013641
0.0052600354 0.41133475 1.166429 9013641
0.0073640267 0.4113335 1.1664255 9013641
0.009468005 0.41133222 1.1664219 9013641
0.011571971 0.41133097 1.1664183 9013641
0.013675923 0.41132972 1.1664147 9013641
0.015779864 0.41132846 1.1664112 9013641
0.017883791 0.41132718 1.1664076 9013641
0.019987702 0.41132587 1.1664039 9013641
0.022091605 0.41132462 1.1664003 9013641
0.024195492 0.41132337 1.1663967 9013641
0.026299367 0.41132212 1.1663932 9013641
0.02840323 0.41132084 1.1663896 9013641
0.030507078 0.41131958 1.166386 9013641
0.032610916 0.41131833 1.1663824 9013641
0.034714676 0.41131631 1.1663767 9013641
0.036818489 0.41131511 1.1663734 9013641
0.038922295 0.41131398 1.1663702 9013641
0.041026086 0.41131282 1.1663668 9013641
0.043129869 0.41131169 1.1663636 9013641
0.045233641 0.41131055 1.1663604 9013641
0.047337394 0.41130936 1.166357 9013641
0.049441136 0.4113082 1.1663537 9013641
0.051544875 0.41130707 1.1663505 9013641
0.053648591 0.41130587 1.1663471 9013641
0.055752303 0.41130474 1.1663439 9013641
0.057856005 0.41130361 1.1663407 9013641
0.059959687 0.41130242 1.1663374 9013641
0.062063355 0.4113012 1.1663339 9013641
0.064167 0.41129994 1.1663303 9013641
0.066270635 0.41129869 1.1663268 9013641
0.068374254 0.41129744 1.1663232 9013641
0.070477851 0.41129613 1.1663195 9013641
0.072581448 0.41129485 1.1663159 9013641
0.07468503 0.4112936 1.1663123 9013641
0.076788597 0.41129234 1.1663088 9013641
0.078892142 0.41129103 1.1663051 9013641
0.080995686 0.41128978 1.1663015 9013641
0.083099216 0.4112885 1.1662979 9013641
0.085202724 0.41128722 1.1662942 9013641
0.087306224 0.41128594 1.1662906 9013641
0.089409716 0.41128469 1.1662871 9013641
0.091513194 0.41128343 1.1662835 9013641
0.09361665 0.41128212 1.1662798 9013641
0.095720097 0.41128087 1.1662762 9013641
0.097823538 0.41127959 1.1662726 9013641
0.099483974 0.40945509 1.1610988 7479842
0.099524297 0.40117526 1.1376196 6946816
0.099563017 0.39322364 1.1150711 6946816
0.099606134 0.38560396 1.0934638 7471104
0.10157896 0.38560554 1.0934683 7995649
0.10355178 0.38560712 1.0934727 7995649
0.10552462 0.38560867 1.0934771 7995649
0.10749749 0.38561025 1.0934817 7995649
0.10947036 0.38561183 1.0934861 7995649
0.11144325 0.38561338 1.0934905 7995649
0.11341617 0.38561496 1.093495 7995649
0.11538909 0.38561654 1.0934994 7995649
0.11736204 0.38561812 1.093504 7995649
0.11933499 0.38561967 1.0935084 7995649
0.12130796 0.38562125 1.0935128 7995649
0.12328096 0.38562283 1.0935173 7995649
0.12525396 0.38562438 1.0935217 7995649
0.12722698 0.38562596 1.0935261 7995649
0.12920003 0.38562754 1.0935307 7995649
0.13117307 0.38562909 1.0935351 7995649
0.13314614 0.38563067 1.0935395 7995649
0.13511923 0.38563225 1.093544 7995649
0.13709232 0.3856338 1.0935484 7995649
0.13906546 0.38563541 1.0935529 7995649
0.14103858 0.38563696 1.0935574 7995649
0.14301172 0.38563851 1.0935618 7995649
0.1449849 0.38564011 1.0935663 7995649
0.14695808 0.38564166 1.0935707 7995649
0.14893126 0.38564321 1.0935751 7995649
0.15090449 0.38564482 1.0935796 7995649
0.15287772 0.38564637 1.0935841 7995649
0.15485097 0.38564798 1.0935886 7995649
0.15682423 0.38564953 1.093593 7995649
0.1587975 0.38565108 1.0935974 7995649
0.1607708 0.38565269 1.0936019 7995649
0.16274412 0.38565424 1.0936064 7995649
0.16471744 0.38565579 1.0936108 7995649
0.1666908 0.3856574 1.0936153 7995649
